ncols         335
nrows         32
xllcorner     -120.26498311
yllcorner     47.1337826605
cellsize      0.000602592593
NODATA_value  -9999
1432.991 1429.92 1423.286 1417.168 1418.312 1420.196 1421.793 1422.782 1422.62 1421.638 1419.932 1417.573 1414.91 1414.16 1414.307 1414.103 1412.488 1410.029 1407.415 1404.642 1397.938 1387.951 1379.385 1372.073 1366.569 1371.554 1376.292 1375.41 1371.647 1365.352 1358.619 1353.516 1351.503 1351.911 1352.763 1350.994 1347.19 1343.511 1333.419 1326.55 1327.603 1335.094 1339.854 1342.176 1341.826 1336.544 1331.613 1324.554 1316.122 1307.137 1293.447 1296.409 1300.349 1304.337 1306.253 1305.891 1304.381 1303.692 1303.111 1301.612 1299.78 1298.376 1297.458 1296.972 1297.039 1297.482 1297.483 1296.854 1295.282 1293.389 1291.097 1288.818 1286.533 1284.388 1282.548 1279.88 1276.115 1272.748 1270.104 1266.988 1262.818 1259.528 1256.563 1253.549 1250.444 1247.54 1244.791 1239.871 1235.999 1232.658 1227.925 1223.111 1215.144 1200.717 1187.81 1188.606 1195.103 1198.063 1198.917 1194.533 1185.394 1175.254 1165.668 1157.733 1152.371 1146.426 1142.869 1138.14 1129.798 1121.645 1120.112 1118.847 1117.014 1113.464 1108.562 1106.128 1104.177 1101.784 1099.861 1098.506 1093.107 1084.723 1075.989 1071.195 1050.542 1034.415 1025.628 1017.415 1004.573 990.5396 976.7254 971.2353 967.1224 964.333 959.4349 952.8105 945.5219 939.9448 939.3266 951.4509 957.8847 961.9407 966.1617 964.7107 954.085 964.0067 972.3497 978.2568 985.3445 989.6376 990.1353 988.7382 985.9731 980.8966 978.2027 975.9283 970.4623 963.1141 956.7794 951.6471 953.5399 950.3907 944.4607 938.9068 935.4138 935.2702 934.3815 936.6643 943.4772 949.1929 949.1783 945.0753 938.891 931.1718 926.8145 924.6131 919.671 914.3642 908.7131 902.9814 895.6202 890.7177 884.0556 881.0338 872.9392 868.6855 860.6087 851.1051 838.0906 823.2542 809.6022 792.4841 777.1067 762.2495 744.7268 729.4798 715.3309 700.9066 684.3074 667.2186 648.8876 631.544 624.2471 637.9872 648.299 654.4258 664.5065 666.2473 666.209 672.7328 675.8983 668.6334 670.4514 688.7265 702.8453 717.6568 723.2634 718.9001 700.2151 687.072 673.7491 666.1506 692.3632 717.2422 739.1221 751.6813 761.8276 769.9036 778.7216 787.8227 794.0873 791.9767 789.2762 791.5738 798.4733 812.6069 828.5802 834.077 832.2623 824.252 812.6121 796.8035 779.7683 759.6752 743.5156 743.248 744.0516 744.0858 743.6566 740.1113 733.8449 724.9341 714.9272 701.4547 685.6061 669.8073 653.683 642.1974 646.1873 654.7715 660.2446 665.1707 667.0181 664.8293 661.4946 661.8695 656.678 661.1613 666.3372 670.1476 675.8635 677.189 676.5898 674.76 670.8694 663.2012 655.0616 648.2982 639.4797 626.2897 621.933 618.823 611.9919 605.9448 602.4058 601.2972 595.7137 584.936 580.3632 574.2841 568.2462 563.4321 559.2373 554.6695 550.8488 552.6041 553.0511 551.1075 546.306 542.0275 537.4785 536.9664 533.6021 527.6705 524.4157 521.8002 518.5233 512.7752 513.0571 512.6911 512.3264 512.3521 512.3776 512.197 511.682 509.8054 506.7056 503.5864 502.2581 497.1859 490.6589 481.4531 479.2595 491.0168 497.5225 499.6362 509.2973 514.988 517.8975 522.3792 525.7928 526.0372 518.2061 504.6405 492.3602
1431.01 1429.525 1424.773 1416.734 1412.879 1415.658 1417.355 1418.867 1419.182 1418.667 1417.467 1415.559 1413.104 1411.351 1410.323 1409.311 1408.314 1407.09 1405.333 1402.342 1395.632 1385.51 1374.022 1367.894 1362.225 1358.228 1360.78 1360.845 1357.421 1352.932 1348.284 1343.146 1340.056 1337.76 1339.135 1339.037 1335.419 1330.452 1323.032 1316.137 1314.399 1324.918 1328.9 1330.266 1329.568 1327.358 1323.436 1317.302 1311.342 1303.344 1289.087 1275.097 1284.116 1293.696 1297.336 1298.331 1296.929 1295.38 1292.738 1292.394 1293.674 1295.011 1294.792 1293.979 1293.652 1294.627 1296.577 1296.608 1295.746 1293.897 1291.629 1289.469 1287.656 1285.898 1284.017 1281.829 1278.433 1274.981 1272.131 1269.302 1262.733 1257.717 1254.919 1251.957 1248.931 1245.8 1237.947 1230.577 1229.085 1227.157 1224.565 1221.289 1213.047 1199.197 1184.918 1170.806 1179.062 1182.038 1181.074 1175.925 1166.857 1157.106 1148.341 1138.031 1128.76 1122.408 1117.16 1112.909 1106.699 1102.026 1094.495 1090.845 1083.679 1075.565 1075.456 1076.279 1074.027 1073.688 1075.452 1074.356 1070.309 1062.029 1050.972 1038.928 1024.456 1007.082 995.9578 998.2228 997.1133 995.658 998.1892 1003.372 997.8325 998.3306 996.6565 994.1721 983.392 963.5245 950.6221 939.6649 928.5782 921.7733 919.441 923.4704 920.7544 932.5496 938.2151 942.4885 949.2722 953.0855 956.1326 955.8437 952.5689 947.9386 945.3163 941.5771 936.811 933.3131 928.4968 920.3737 922.0536 916.3516 912.6393 910.3854 906.6877 902.9401 901.1204 909.9341 917.8044 921.9122 922.752 921.0058 916.2214 906.8917 900.7769 898.2542 894.7091 885.445 877.8447 871.894 866.1843 862.7598 860.8738 858.9541 853.8985 850.5151 846.1151 837.7551 824.0396 810.0445 791.8551 781.3365 769.654 753.5968 737.7272 722.2558 702.0532 682.838 667.6832 656.1169 638.9017 633.9976 647.5525 661.169 674.2292 672.5582 687.9772 700.1025 704.3563 709.4047 718.9847 712.4119 705.8042 725.0161 739.364 754.1404 760.9345 754.3386 736.6154 726.5945 712.8525 691.7792 696.6512 719.0308 743.313 758.5145 771.7548 781.0558 791.2957 804.4559 815.6252 822.7729 820.4431 820.7385 827.3444 830.9669 832.8464 832.6646 823.7538 812.5427 798.9282 784.2868 768.908 752.7476 735.1357 719.2596 719.4288 720.694 720.3384 716.6488 709.2642 700.372 689.7305 677.5998 664.8823 647.5787 648.7104 661.3799 673.8232 680.6036 686.3893 692.7427 694.8419 689.9091 682.3148 670.7828 670.3395 674.2725 680.4179 687.9302 693.6222 696.1683 692.1023 686.8109 676.5418 667.6776 659.3514 648.4944 645.718 641.8572 637.5188 631.6262 626.271 620.7737 616.8869 613.6514 610.8303 602.8807 597.5585 593.8182 590.0851 586.4901 579.2151 576.7874 572.3235 572.6772 571.9048 571.5291 569.3295 563.7318 552.4382 555.8843 557.4584 554.3291 550.3147 543.017 538.1044 530.9371 523.662 527.3564 529.4075 529.3207 528.9018 528.2815 527.5933 525.2587 519.3254 515.9531 512.6873 507.3531 499.3376 489.8993 476.7652 473.5298 476.879 483.781 490.2975 496.3017 499.0259 504.3994 508.4198 511.0522 506.3256 494.2477 489.7079
1427.504 1426.212 1423.328 1419.851 1416.568 1408.613 1415.007 1417.149 1417.429 1417.087 1415.901 1413.471 1410.792 1408.154 1406.065 1405.34 1403.859 1403.202 1402.181 1397.051 1391.346 1378.65 1370.431 1364.283 1358.572 1352.711 1348.897 1347.828 1344.823 1340.578 1337.487 1333.497 1328.167 1321.908 1320.5 1320.566 1320.029 1318.492 1306.02 1296.108 1302.007 1319.496 1321.1 1321.439 1320.948 1318.968 1315.886 1312.089 1307.714 1299.728 1282.859 1260.835 1260.571 1278.694 1283.628 1288.714 1284.555 1279.739 1279.036 1270.382 1280.389 1284.359 1281.262 1273.45 1269.466 1271.241 1278.647 1284.349 1287.671 1289.193 1288.131 1287.116 1286.579 1285.523 1283.912 1281.765 1278.397 1274.549 1270.362 1263.278 1255.623 1252.815 1250.498 1248.503 1246.243 1242.411 1236.207 1227.568 1218.209 1219.173 1217.72 1212.404 1202.768 1189.409 1176.176 1159.021 1162.468 1162.048 1159.202 1153.692 1145.564 1137.631 1125.973 1115.519 1112.928 1110.73 1108.181 1103.526 1098.68 1093.508 1089.06 1087.642 1086.577 1084.578 1079.633 1074.306 1065.819 1056.316 1047.412 1037.707 1033.875 1027.486 1019.801 1011.603 1010.212 1021.968 1028.687 1030.557 1034.73 1036.582 1035.738 1041.447 1041.318 1043.447 1041.662 1024.275 999.4907 990.8271 973.8886 968.5671 951.275 938.1253 931.5521 923.4999 915.874 899.5818 894.0178 898.322 907.0412 913.1228 917.2216 923.2076 917.8605 914.0461 911.3369 906.2297 902.746 897.6506 890.9714 886.5063 889.0653 879.2322 875.0282 872.8171 871.179 869.5753 864.0419 879.7084 885.2956 888.9351 890.8835 890.2012 885.476 876.568 870.5752 869.9152 865.6467 858.7576 844.0991 833.1008 831.221 829.1622 825.9066 823.2056 820.5197 817.9019 814.0781 808.8381 794.7436 779.1948 764.2072 756.1929 746.7484 731.4858 713.8247 704.9067 692.9379 671.9529 654.6215 642.6046 646.2707 665.7443 676.8073 688.8226 700.951 707.8342 707.7477 730.2239 742.3239 750.9829 759.3636 758.5499 754.1514 761.3333 777.0113 786.8842 787.0765 783.425 774.6932 762.7854 739.8588 714.2767 716.7665 735.2114 752.4465 767.8698 780.3729 791.8425 804.8909 819.7343 827.2213 831.0563 834.5601 840.4483 844.204 837.5874 828.0243 817.8866 803.1992 790.6064 779.1925 767.8359 754.2369 740.4457 726.8173 713.7253 696.1385 696.2816 694.2729 689.6951 679.6055 669.1807 659.3015 652.5178 654.8017 663.6044 677.3643 686.998 697.6187 702.6746 706.0362 707.6677 707.2037 700.5251 685.5875 686.187 689.1227 692.6249 697.2028 700.4134 701.9585 699.8622 695.154 690.9399 685.7758 678.1011 670.5142 662.346 661.2755 656.3785 650.1977 644.4542 639.6393 636.0209 631.7928 627.5295 623.8125 619.2772 614.1525 610.4606 607.1024 603.3222 600.6738 597.5128 595.5544 590.7327 590.024 588.6276 582.3444 572.6555 571.8638 574.5165 573.583 569.215 562.7213 555.9586 548.8281 538.1357 537.7161 542.8946 545.2576 544.8251 544.1938 543.3751 541.7531 536.7756 529.9296 525.9587 520.7222 513.9724 504.8611 491.5586 493.9258 490.3644 482.2459 473.6731 469.0279 472.7796 473.5034 480.3413 485.4967 490.7262 491.7056 481.3548 487.5374
1422.911 1421.375 1419.531 1417.382 1413.732 1402.959 1408.933 1414.457 1415.396 1414.789 1413.266 1410.209 1407.381 1404.996 1402.355 1400.733 1399.19 1395.796 1392.263 1387.609 1378.392 1371.644 1365.21 1360.107 1354.241 1349.91 1343.972 1336.244 1329.832 1324.806 1321.769 1311.536 1301.658 1297.008 1292.748 1287.918 1291.145 1289.413 1283.571 1270.282 1290.276 1305.679 1309.243 1311.389 1311.656 1311.325 1309.733 1306.344 1299.263 1284.767 1265.983 1250.193 1236.615 1248.537 1262.296 1265.77 1259.687 1248.172 1253.489 1247.397 1248.509 1263.847 1263.964 1253.447 1245.156 1249.157 1254.747 1262.18 1266.819 1269.926 1273.894 1278.399 1281.821 1283.708 1282.777 1280.482 1276.648 1272.788 1268.156 1258.485 1252.837 1246.159 1243.243 1241.56 1237.857 1233.202 1228.605 1223.36 1215.946 1205.319 1204.137 1196.125 1186.316 1174.501 1161.307 1153.407 1148.224 1143.756 1137.958 1134.403 1131.689 1132.537 1137.177 1138.778 1138.661 1137.402 1134.011 1130.311 1125.508 1120.675 1116.381 1111.881 1108.505 1106 1103.173 1097.422 1092.824 1085.561 1074.769 1067.036 1063.208 1060.233 1048.372 1020.066 1033.013 1048.864 1060.337 1066.015 1066.889 1067.574 1069.168 1069.616 1069.16 1066.388 1052.615 1038.231 1025.776 1002.604 1002.793 999.2142 987.012 972.6203 967.0715 955.179 942.6411 930.8744 920.1162 903.9852 889.5851 877.5917 874.8016 879.1179 876.8018 876.8018 873.0814 867.1096 863.3613 856.313 852.876 850.3317 846.979 842.6556 838.8965 836.4563 836.4055 836.2135 833.8306 843.6975 847.1179 852.2369 855.1207 853.8489 851.2499 842.0856 831.775 833.0436 828.6378 824.3975 813.5089 794.4285 792.944 789.997 788.5257 783.015 780.452 779.5295 776.8713 772.3772 763.4686 751.238 737.0033 724.2462 717.7901 707.8297 695.0914 680.0342 670.3939 658.1736 648.1132 656.1903 676.592 694.0228 706.1649 714.8713 729.7686 744.2676 744.1003 750.7453 774.3007 787.5834 792.1714 791.1016 791.674 795.8866 802.574 803.2571 798.4952 791.9489 783.3345 771.6713 759.81 731.6078 745.7476 757.14 769.3671 781.4087 792.2218 805.1744 815.4957 824.2833 827.7628 829.4642 832.3029 834.4399 834.3657 827.5425 813.4019 799.6456 784.1804 765.9276 755.4653 747.174 736.7534 725.7924 715.1293 703.5557 689.7651 676.603 669.8364 664.5117 660.9849 667.2507 670.3585 680.2604 682.6152 689.3996 698.7706 707.0276 712.7015 715.924 716.9926 715.6947 712.2251 703.942 698.861 702.5397 705.1218 707.1469 708.6281 709.2482 708.9261 705.5992 701.1925 696.733 690.4672 683.8908 676.4273 673.8238 671.5123 664.8132 659.7756 654.1204 649.7181 647.8591 642.5244 638.3267 635.2433 630.0448 625.6922 622.1381 618.4886 614.8093 611.9775 608.6076 605.6648 602.4686 599.8763 594.7938 587.4811 584.4206 586.5407 586.6157 583.7374 578.7766 571.5192 563.1089 552.1682 550.3616 554.6474 558.5123 559.2427 556.9351 555.6691 553.4808 548.7735 546.7853 541.7661 535.4252 529.7274 520.165 504.5624 505.016 511.4599 507.6844 503.6707 498.0388 490.3846 479.1826 467.8256 462.9083 462.0337 467.1495 471.5075 470.8186 483.1938
1416.293 1417.316 1415.601 1413.092 1409.347 1402.366 1402.934 1406.371 1407.809 1407.736 1406.798 1405.135 1403.054 1400.841 1398.693 1397.004 1395.373 1392.839 1388.502 1382.715 1378.073 1372.418 1366.857 1362.563 1357.318 1352.299 1347.518 1340.822 1333.606 1326.646 1318.252 1311.101 1306.023 1303.947 1299.854 1286.323 1273.083 1264.352 1254.262 1250.914 1260.394 1275.722 1277.341 1288.118 1294.033 1299.125 1297.91 1289.335 1276.274 1262.5 1248.188 1229.858 1211.561 1215.282 1226.624 1229.247 1223.711 1210.241 1219.295 1218.706 1215.696 1231.51 1235.577 1228.846 1210.464 1220.572 1228.595 1235.862 1244.683 1247.81 1252.744 1260.504 1267.098 1270.382 1271.907 1271.864 1270.818 1268.566 1264.849 1259.819 1252.753 1245.027 1239.283 1232.302 1226.55 1219.455 1217.005 1209.685 1204.277 1195.361 1189.318 1182.025 1169.908 1166.929 1166.438 1166.121 1166.939 1163.271 1160.793 1158.623 1153.822 1153.936 1161.205 1164.674 1166.336 1165.048 1161.072 1154.563 1149.59 1144.527 1140.201 1136.085 1132.29 1131.053 1129.563 1127.542 1124.527 1116.569 1104.379 1089.915 1079.214 1063.82 1037.717 1039.701 1054.941 1069.408 1080.339 1087.698 1092.714 1094.199 1091.343 1088.261 1085.781 1081.869 1075.167 1060.506 1037.562 1031.75 1031.218 1022.942 1012.704 1004.856 1001.288 992.3126 979.46 963.4172 945.5491 928.9991 918.588 906.012 889.8091 873.3746 874.1487 867.6844 861.1428 856.1061 853.627 851.4085 843.8223 837.0577 831.975 827.2244 819.8798 811.5465 801.4418 800.9008 803.7437 804.4943 805.4054 810.0821 816.0626 816.6286 814.5326 809.9058 793.3884 797.1988 793.2297 788.2647 780.8414 766.7981 764.5793 756.2457 754.2209 750.6232 748.71 748.2162 743.5733 736.184 730.6405 722.7114 711.6251 699.4049 690.436 680.36 670.3401 663.6127 657.8464 668.667 679.11 690.4297 684.2425 706.5113 729.3602 747.3261 755.3246 774.0746 785.8111 788.4655 800.6843 811.0372 814.6556 815.3173 815.592 815.5355 814.9385 810.3197 804.309 795.5861 786.5659 773.5807 759.5603 759.4434 771.0495 783.3225 788.9424 793.4716 803.3391 811.9772 820.1043 821.6627 820.4334 819.9229 820.6558 818.8898 814.2577 805.6749 794.3584 781.8582 768.7732 750.2583 731.8896 725.5992 718.9496 709.4643 699.1346 686.6637 670.6013 669.3847 672.7817 678.7314 681.7163 695.703 702.0626 707.7296 709.5506 712.3342 718.1121 721.7062 723.0712 723.871 723.2936 721.0177 715.7598 712.0894 713.5093 715.7487 717.3469 717.6429 716.5324 714.3183 711.8278 708.5392 703.8387 699.4613 693.7421 685.2453 677.9888 673.4465 668.9558 663.1689 658.6817 651.915 646.7097 643.5399 641.2808 639.1862 637.8198 635.7626 631.7366 628.1102 625.9319 623.5992 619.7119 615.1018 610.7163 607.5248 603.1759 598.1254 595.126 593.6699 592.4655 590.7495 588.6359 584.9594 576.1746 565.8513 562.164 562.8455 566.37 568.2631 567.256 565.2781 562.4478 558.7731 556.2882 552.1567 548.4056 540.7561 531.6326 521.8198 521.1239 523.4697 522.7084 519.175 515.1925 509.5932 502.4188 491.9731 477.5964 475.4275 473.593 462.191 459.5953 462.6154 460.1151
1412.287 1412.776 1411.775 1409.627 1406.739 1400.227 1393.034 1396.101 1399.003 1399.669 1398.72 1396.555 1394.424 1393.553 1393.098 1392.468 1391.872 1389.645 1386.559 1383.292 1380.998 1378.677 1373.425 1368.488 1363.632 1358.345 1353.231 1347.833 1342.2 1339.858 1338.082 1335.899 1332.212 1327.038 1321.571 1309.695 1297.796 1284.484 1276.5 1266.099 1254.439 1241.152 1230.549 1237.874 1249.542 1261.401 1260.682 1251.876 1241.47 1231.007 1219.716 1205.054 1192.325 1185.433 1190.052 1189.362 1186.267 1177.627 1181.105 1177.119 1182.724 1190.935 1195.582 1187.43 1178.15 1192.889 1207.642 1216.915 1221.47 1222.175 1227.984 1238.427 1245.104 1254.54 1258.418 1259.049 1258.88 1259.564 1258.778 1256.417 1252.709 1247.285 1241.485 1234.464 1230.299 1224.109 1219.481 1214.508 1209.749 1202.79 1194.991 1188.787 1183.683 1182.342 1186.088 1189.975 1190.637 1188.693 1183.536 1178.621 1174.438 1175.177 1176.683 1179.049 1178.965 1177.432 1174.142 1171.184 1168.765 1164.527 1161.369 1155.96 1151.831 1147.162 1142.746 1138.885 1133.342 1126.507 1112.033 1093.775 1069.611 1048.029 1053.584 1063.99 1075.767 1087.393 1097.56 1102.343 1104.345 1103.98 1101.52 1097.183 1093.523 1089.958 1082.939 1068.517 1056.946 1051.968 1047.563 1042.482 1038.479 1039.445 1032.063 1020.528 1007.434 992.3082 972.0425 958.8475 941.7599 919.7241 891.6793 899.567 905.624 900.8032 893.1895 892.3689 885.6796 885.1003 880.0591 869.989 860.9574 858.1651 852.4379 844.835 837.8928 830.0738 819.7026 805.278 793.6882 783.144 774.1231 773.6452 774.2065 769.9381 759.3284 755.7831 755.0671 745.2011 740.0128 736.1547 734.55 724.6241 721.611 715.9703 711.7688 710.1661 706.5686 699.2573 692.6035 688.4478 683.8452 682.6565 687.132 686.29 684.14 695.2141 700.502 706.2748 715.408 725.4752 726.7888 718.5179 743.5293 764.1505 786.6916 801.5745 814.5096 819.4036 820.4862 822.6894 823.3043 822.7141 821.5576 819.9832 816.9792 812.5399 808.0715 801.8887 794.3862 785.1412 775.7049 780.6779 787.3116 793.3304 799.5657 806.1168 809.9868 812.4637 812.4127 808.7686 804.9175 802.7997 800.451 795.9482 791.6582 784.9078 776.0396 764.3287 748.8293 734.2871 716.44 704.1256 698.3851 689.2303 681.1099 673.8464 681.7307 692.9376 701.4997 706.2378 710.7508 719.6096 726.5921 729.9384 729.7962 729.1086 729.5273 730.054 729.7001 728.1666 726.3683 723.6257 722.0377 723.7429 726.1704 727.4351 725.2733 723.2231 720.6717 716.9035 712.9066 708.7496 704.7053 699.265 693.3575 682.0505 672.2752 664.886 657.1323 652.9783 646.9512 641.3434 636.5462 631.5491 630.4383 631.0983 631.4873 630.4641 629.2655 627.8365 626.6778 625.3195 622.6481 617.4846 613.2396 609.6243 605.5335 602.1751 600.2856 598.2 594.8928 591.8617 589.7695 587.9486 581.8291 574.0346 572.6852 573.6442 575.084 575.8191 575.1599 571.201 567.4644 564.9767 562.2896 556.4476 549.567 543.4131 538.4285 539.0396 538.5541 534.8297 530.0382 524.9611 516.9576 508.4634 495.9559 486.7571 491.4518 496.2112 495.8415 487.2327 475.1237 458.9301 462.3181
1408.051 1408.957 1408.405 1406.481 1404.107 1396.023 1386.619 1385.041 1385.46 1386.163 1386.395 1385.787 1384.596 1383.546 1382.201 1381.728 1383.003 1383.811 1382.8 1381.24 1379.587 1378.156 1378.268 1377.196 1373.687 1367.972 1361.798 1355.361 1351.347 1349.026 1347.271 1345.564 1342.845 1337.585 1333.325 1328.614 1321.215 1308.125 1301.877 1286.38 1278.499 1268.188 1254.712 1241.966 1225.528 1211.176 1212.679 1209.525 1199.219 1189.365 1182.154 1169.968 1165.408 1158.339 1161.017 1152.424 1147.876 1145.314 1147.136 1147.065 1151.422 1155.37 1158.159 1152.872 1148.927 1172.01 1185.969 1193.478 1196.352 1195.03 1205.459 1216.925 1223.938 1226.41 1229.206 1232.311 1235.863 1242.255 1247.444 1250.45 1250.079 1248.559 1246.653 1242.525 1238.415 1235.413 1233.09 1228.821 1223.835 1218.776 1211.163 1200.103 1193.772 1194.078 1198.202 1201.52 1202.985 1203.691 1202.183 1198.231 1192.517 1191.969 1191.171 1188.54 1186.346 1183.91 1182.093 1177.988 1174.336 1170.119 1164.787 1160.827 1155.064 1150.423 1145.882 1137.182 1127.426 1113.237 1097.235 1074.921 1063.323 1070.675 1080.276 1089.583 1098.973 1104.277 1107.935 1110.946 1111.712 1110.317 1106.818 1102.651 1099.134 1095.531 1089.575 1084.093 1079.383 1073.906 1067.248 1061.102 1055.363 1050.283 1045.184 1038.076 1025.488 1006.712 988.1749 965.3176 939.6966 912.4054 917.6271 925.9939 937.3271 936.2981 932.2172 930.9576 923.8957 920.2314 923.4413 910.8415 893.7964 899.0825 897.0414 887.787 877.5966 866.1199 850.692 836.5955 819.3866 804.0395 798.9885 789.9797 783.9261 778.7216 772.617 771.0936 768.4923 765.2096 763.0479 759.8738 755.3533 747.1995 749.3179 744.9553 734.8119 732.851 725.9249 725.8726 723.5939 717.4281 716.9947 714.6741 720.8282 724.5156 720.0166 720.4444 736.5953 748.5989 758.4467 762.0773 759.581 756.4089 762.5305 789.5236 805.3024 820.235 827.6901 829.7994 830.147 829.4586 828.0616 825.6388 822.9712 820.2727 817.0699 812.4886 808.8394 804.1517 797.6309 792.1942 786.9526 787.5934 791.9443 796.9995 802.0471 806.7212 806.652 803.9183 797.3824 789.6097 783.5085 779.3912 775.6235 772.2075 767.3804 759.6721 750.2343 740.2699 730.4312 714.6624 702.0931 688.8074 681.4017 678.302 682.7739 697.126 707.0904 715.7437 724.1191 730.4856 735.71 738.902 739.7502 739.4655 738.2923 737.1058 736.1977 735.3241 733.5907 731.603 729.5867 729.7643 731.6957 733.2562 734.2431 730.7499 726.1582 722.8228 719.3255 715.8395 712.6509 710.1027 705.7603 699.5693 692.9059 683.7773 673.348 662.186 652.4671 645.898 641.7706 635.6179 628.8433 622.8246 618.1273 616.3456 616.3631 617.0318 618.7647 621.5159 623.1247 622.0438 617.6325 612.3638 608.9399 606.8416 604.6401 602.4502 600.1071 596.5131 592.1027 589.3005 587.9966 587.1227 585.6701 581.8962 580.156 580.0728 580.2202 579.2722 577.335 575.5117 572.8069 564.962 560.7862 558.1013 554.6436 552.765 550.7134 546.6362 542.2031 537.6943 531.0661 523.4967 512.9057 500.8888 501.1829 504.0136 508.4552 511.2237 510.5196 507.0961 498.4841 494.7599 492.6562
1405.735 1406.78 1406.806 1405.687 1401.489 1392.409 1385.162 1377.469 1375.834 1376.331 1376.748 1376.443 1374.784 1372.135 1370.804 1372.493 1374.926 1377.394 1378.365 1379.67 1380.016 1379.429 1378.821 1382.064 1383.685 1378.919 1369.336 1363.223 1358.805 1357.094 1355.195 1351.724 1348.112 1343.941 1339.818 1336.149 1332.334 1327.443 1322.698 1314.269 1303.774 1291.574 1272.394 1256.437 1243.067 1233.093 1223.289 1212.909 1206.612 1197.487 1191.487 1184.936 1178.214 1169.804 1161.907 1154.829 1144.186 1132.282 1122.034 1120.025 1121.156 1121.822 1123.126 1122.48 1130.063 1152.285 1161.931 1168.17 1170.696 1175.201 1182.492 1189.308 1190.7 1186.876 1189.01 1197.18 1208.358 1222.716 1233.432 1242.31 1247.223 1247.453 1246.242 1243.508 1240.626 1238.211 1236.484 1234.678 1230.564 1225.806 1220.85 1211.227 1205.134 1203.418 1206.996 1209.632 1210.504 1210.856 1210.319 1209.137 1205.548 1201.212 1196.392 1192.605 1189.25 1186.584 1182.587 1176.704 1170.959 1165.828 1159.78 1152.875 1147.098 1140.902 1134.297 1123.267 1105.601 1085.823 1079.849 1082.669 1089.591 1100.459 1105.547 1110.557 1115.013 1117.225 1119.189 1119.221 1117.802 1115.213 1111.689 1107.865 1103.854 1099.542 1094.835 1090.932 1087.281 1080.669 1074.352 1067.853 1061.042 1054.833 1047.466 1037.476 1020.953 1001.038 979.855 956.8591 934.8692 937.9623 946.6117 956.7457 968.7472 978.627 981.7634 972.0802 964.6804 962.4742 958.4453 946.4278 937.9182 937.6333 932.8987 924.6707 916.5919 901.6619 879.1505 855.0195 828.1077 827.7115 829.699 820.375 814.3827 808.9958 794.3137 800.2935 803.1619 802.6419 798.6919 794.9401 785.8525 781.6617 782.7627 784.9774 774.6858 768.0693 760.54 762.7655 760.4582 746.4564 748.5372 748.6285 746.566 759.9237 757.7285 746.0344 764.9321 783.8907 795.2061 802.1102 801.0724 795.0571 808.6229 817.5108 827.3493 834.0148 835.6779 835.1448 833.8074 832.2807 829.6317 826.3082 823.1229 819.8523 816.0046 810.3246 804.7413 797.6511 791.8475 787.8163 785.8259 786.6536 789.0932 791.7902 793.3706 794.2014 791.64 783.7779 775.7755 768.0911 762.6528 755.8319 750.1539 743.3429 738.4346 733.0363 725.4897 716.0591 704.8414 693.4204 683.4921 682.7416 689.1431 701.8945 712.2188 721.7689 728.6931 735.3801 742.2371 746.8937 748.2917 748.3611 747.2949 745.5804 743.5896 741.6094 739.2328 737.0443 734.8544 732.5674 730.0586 730.0576 733.2604 734.8418 729.1752 723.2006 718.0987 712.8579 709.4138 707.883 706.9106 704.4596 699.91 694.6644 685.058 675.4338 668.3569 662.7347 656.3221 648.6224 638.1325 632.93 625.2443 618.6608 608.8591 602.3059 599.4525 598.8152 600.532 605.5287 611.0865 612.7298 610.5848 602.9174 596.5508 598.1746 601.0089 600.2222 597.7346 592.0146 585.5862 580.9354 580.3922 581.4764 582.2415 582.543 583.3379 586.034 585.3701 582.9672 579.5239 576.2043 573.7689 568.555 564.9947 562.0317 558.678 555.1417 551.8845 547.9358 542.5543 536.6724 528.1196 522.0012 515.0641 517.6945 519.0186 520.554 522.1621 522.5291 521.5618 519.7349 516.9006 513.9966 510.856
1404.24 1405.766 1406.091 1405.586 1402.607 1396.628 1390.313 1381.017 1370.936 1365.621 1366.691 1366.192 1363.646 1359.321 1357.57 1361.843 1364.743 1367.345 1369.263 1371.759 1376.119 1380.074 1382.289 1383.847 1381.279 1371.778 1365.644 1363.679 1363.568 1365.705 1361.74 1356.624 1353.688 1349.922 1345.267 1341.261 1337.706 1334.165 1331.475 1328.803 1323.303 1313.533 1293.847 1276.998 1265.592 1257.562 1255.183 1252.644 1243.044 1235.457 1228.854 1223.525 1218.167 1212.965 1198.839 1187.004 1177.621 1162.787 1148.459 1134.608 1115.757 1097.425 1094.311 1097.991 1109.249 1126.362 1137.87 1145.706 1145.959 1153.669 1158.373 1160.178 1159.638 1147.182 1151.219 1161.607 1177.489 1197.844 1216.513 1225.278 1232.46 1237.561 1240.763 1240.061 1238 1236.84 1235.795 1234.993 1233.316 1229.811 1225.854 1221.724 1214.809 1210.29 1212.761 1213.667 1213.739 1213.236 1212.112 1210.724 1208.676 1203.272 1197.782 1192.889 1186.925 1183.098 1177.161 1172.253 1163.115 1154.652 1145.257 1134.142 1122.124 1114.304 1104.118 1099.874 1100.358 1101.701 1102.129 1104.495 1110.008 1115.698 1121.327 1125.341 1127.415 1127.353 1126.976 1125.468 1122.771 1119.002 1115.021 1110.436 1105.649 1100.823 1097.182 1093.6 1089.211 1084.47 1077.41 1070.333 1063.077 1054.723 1039.584 1023.127 1004.999 987.0491 970.8755 966.5031 963.356 973.2868 982.6202 986.7 991.2584 997.8537 999.1873 997.452 995.3135 993.3261 989.5988 980.5118 974.5974 968.4861 958.1339 940.6945 925.1351 908.7911 885.6085 859.3972 861.733 862.686 861.8954 856.8707 852.4202 839.2189 826.6694 838.2607 842.4391 842.7649 840.7682 833.6996 825.4089 825.5449 826.0549 824.5317 817.621 802.973 799.031 799.9073 793.662 774.1889 783.0609 784.6492 774.2056 789.5966 793.4949 784.529 793.2655 812.3214 826.1346 841.049 840.2786 835.7651 836.1531 838.1328 839.8523 842.2891 841.0045 837.8677 834.8361 831.9824 828.6185 825.2133 821.8572 818.1309 814.2971 809.2092 801.3042 789.2897 779.7364 776.0784 776.4731 778.8521 780.0468 780.147 778.7439 775.2482 770.6511 764.7595 755.4888 746.6592 739.3322 728.9576 721.9233 715.7341 709.5969 698.771 693.7445 691.0224 689.8718 690.9086 688.3082 696.1233 708.8076 721.3727 730.4549 738.1621 744.9067 750.9941 755.1096 755.7853 755.1038 753.8286 751.7682 749.3568 746.7901 743.5371 740.1447 736.8225 733.9939 730.5836 727.6235 725.3586 721.6837 717.0754 713.8055 709.5248 703.5339 697.6844 692.2994 688.5781 687.4122 686.7521 685.6406 678.8125 671.6743 664.1503 658.5765 654.2503 650.4435 646.9586 640.6513 636.7473 628.5229 621.1154 611.7728 601.5818 591.4861 583.2775 581.4707 589.6718 595.8053 599.5845 597.7332 587.2845 582.9729 585.4221 592.3265 594.2592 592.3412 588.2485 580.4876 572.8574 566.2162 572.4562 576.7804 579.4277 582.03 584.9579 586.2734 584.3548 580.0874 577.0969 574.8732 569.5272 563.4172 561.9609 558.7885 555.2008 552.0182 548.296 543.0492 538.2747 535.4816 531.9426 531.1307 532.3176 533.4836 534.3697 534.3904 533.4793 532.1379 530.8138 529.2534 527.4102 524.8008
1400.23 1403.561 1404.658 1404.961 1404.266 1399.959 1393.421 1385.905 1378.221 1368.897 1357.45 1352.112 1349.255 1347.12 1345.147 1347.397 1350.406 1353.976 1357.305 1362.376 1369.815 1377.9 1383.991 1383.898 1371.894 1363.602 1360.854 1360.059 1361.313 1363.44 1362.281 1358.98 1356.615 1353.328 1347.044 1343.209 1337.694 1333.729 1331.8 1328.694 1324.65 1321.129 1313.175 1301.857 1293.989 1291.432 1287.52 1284.914 1279.146 1269.425 1257.731 1252.107 1245.087 1237.576 1229.036 1218.546 1205.498 1190.754 1173.717 1154.075 1135.58 1116.133 1093.241 1080.095 1079.458 1090.133 1111.137 1122.684 1122.83 1135.904 1138.971 1138.359 1129.53 1112.757 1119.627 1136.603 1154.688 1173.143 1188.634 1197.968 1207.077 1217.009 1224.62 1228.242 1229.148 1229.418 1229.601 1230.957 1233.289 1232.863 1229.683 1225.467 1221.834 1218.769 1217.364 1217.252 1216.32 1214.786 1212.897 1210.822 1208.017 1202.219 1196.464 1190.848 1185.42 1178.814 1172.306 1159.861 1148.579 1139.707 1136.019 1131.726 1126.397 1120.683 1119.839 1121.558 1123.642 1122.701 1121.366 1124.328 1128.048 1131.575 1135.88 1136.86 1136.073 1133.463 1131.06 1128.444 1125.559 1121.758 1115.995 1110.791 1106.614 1102.668 1099.408 1095.103 1090.547 1085.937 1079.972 1074.635 1065.353 1056.617 1043.562 1026.533 1008.596 998.112 994.2878 994.5284 998.7141 1002.218 1006.711 1010.99 1012.849 1014.32 1011.105 1008.56 1006.398 1004.413 1001.304 993.4945 986.6708 976.9634 966.8461 948.4258 928.1212 908.8741 889.11 893.5556 895.9519 896.0349 895.6025 893.5627 885.6194 871.7193 869.1958 878.6529 883.319 883.4647 876.8128 869.4469 860.1768 859.7123 860.4447 860.2435 854.5693 838.2576 838.0463 834.9518 823.5798 812.3236 818.7393 822.3239 811.6927 820.4269 830.1299 824.8087 827.0682 837.5959 850.2924 856.1983 854.514 851.7631 849.4715 847.7485 846.3525 844.8203 842.0791 837.8834 833.9355 830.05 826.0651 822.27 819.5894 815.4183 809.3996 804.3058 798.5121 790.8183 782.4639 764.9382 759.7627 759.832 762.4903 761.9496 759.5311 755.0422 747.8234 740.3154 731.0643 722.8102 713.7964 707.0966 706.8094 707.9041 708.7031 708.4355 707.6452 706.0745 707.031 707.2886 701.882 697.8007 716.929 732.4484 742.0261 749.9592 756.6307 759.6313 760.6091 760.5009 759.5902 758.0007 755.46 751.8336 747.9438 743.79 738.3383 733.6981 730.1103 726.3541 723.8025 721.1735 715.4787 707.2572 700.3936 693.6695 687.5362 682.2512 675.2397 668.4899 664.5198 663.159 663.0305 661.3865 655.8054 648.6777 644.1878 640.563 636.9321 633.5179 630.3142 626.5013 621.2288 614.1875 605.6429 596.2565 588.1193 574.759 563.3882 573.8527 580.5294 584.6406 585.7136 581.0109 570.379 573.0176 583.603 588.1982 587.5626 582.6569 574.7145 563.1712 555.8746 558.2479 570.2891 576.4655 579.7715 581.4384 581.3137 579.8152 577.908 575.9111 572.0878 566.545 561.4554 557.0267 554.556 553.4085 551.8904 549.2153 544.8107 542.0575 541.0835 541.1787 542.2354 543.8919 545.6647 547.4499 547.1104 545.5272 544.0059 542.4626 541.0639 539.6527 537.3698
1392.833 1396.69 1399.634 1401.735 1401.009 1397.536 1392.513 1385.964 1378.719 1371.555 1364.451 1357.594 1349.181 1339.771 1334.144 1331.006 1333.767 1337.297 1346.226 1354.462 1361.697 1367.361 1372.721 1372.232 1364.639 1357.23 1353.841 1352.3 1353.752 1354.995 1354.937 1354.444 1350.832 1345.906 1339.95 1330.053 1324.146 1320.203 1316.43 1314.05 1312.552 1310.065 1305.257 1299.255 1295.722 1294.423 1291.239 1285.219 1281.262 1276.156 1269.923 1263.283 1257.91 1248.844 1239.666 1228.498 1213.532 1199.627 1183.964 1169.564 1149.782 1125.559 1104.289 1085.635 1074.597 1067.379 1080.978 1093.532 1099.191 1109.283 1113.54 1111.586 1101.136 1087.013 1099.195 1123 1137.552 1148.661 1158.597 1167.501 1177.673 1191.309 1201.973 1201.741 1203.831 1207.774 1212.885 1217.989 1222.104 1225.14 1226.27 1225.044 1223.241 1221.381 1220.905 1220.56 1218.094 1215.367 1212.812 1210.307 1206.69 1199.828 1193.25 1186.83 1180.79 1175.323 1168.419 1159.302 1151.325 1150.001 1147.866 1145.175 1141.221 1138.102 1137.824 1138.937 1139.233 1138.646 1138.457 1138.148 1138.503 1139.711 1139.964 1139.334 1138.094 1136.291 1133.627 1129.596 1125.889 1121.7 1115.197 1109.914 1105.455 1101.026 1097.277 1094.449 1090.891 1087.142 1082.302 1077.09 1069.564 1060.768 1051.67 1039.861 1028.546 1022.75 1020.017 1023.451 1025.647 1026.205 1027.091 1027.164 1025.91 1022.296 1017.841 1014.491 1010.262 1005.667 1000.87 994.884 987.428 977.7374 966.3013 949.9355 933.4677 919.0848 917.0378 919.396 922.3696 923.1533 921.5862 919.2256 912.6658 902.7115 903.4525 909.2785 910.2484 908.6027 905.6135 900.2111 891.6851 888.84 887.6315 885.0632 878.4203 873.7515 871.843 865.2033 855.3388 848.4624 848.1776 848.3369 846.4833 845.8574 852.7494 854.6819 855.9061 859.7329 861.7743 860.3884 858.6518 857.2873 855.5646 851.7064 847.1852 843.2062 838.9398 834.6445 831.5054 827.1107 820.6331 816.3609 811.5034 806.0375 801.5001 796.2127 790.9681 786.1954 781.9821 773.5365 762.4224 748.3763 742.8945 741.5702 736.9542 730.8678 723.5612 717.5959 716.1757 716.912 722.7366 726.6675 729.2549 729.7556 729.3687 728.571 727.28 725.422 725.0218 724.0679 715.6841 702.7913 718.4837 735.7787 747.6182 756.9175 761.1569 763.2301 764.2217 763.7877 762.3558 760.3107 757.4371 752.7941 748.1028 743.228 736.5503 729.684 720.6147 717.5453 715.2282 711.4448 705.9464 699.5117 690.1425 677.0579 668.3691 660.06 651.0989 644.1324 639.5672 637.3234 638.821 639.2994 636.5816 631.0207 625.3936 619.6434 616.2589 613.9865 610.1848 607.2196 603.8201 599.522 593.7998 586.8539 576.1826 563.397 549.4739 550.8481 556.7773 561.9063 565.7228 562.6141 554.044 555.2559 568.5163 575.1154 575.3641 569.8109 560.2321 550.0235 544.9545 557.4168 569.361 576.4232 578.7171 579.2486 578.1086 576.0881 574.4744 570.791 565.97 561.144 555.7709 550.8482 546.6149 548.3206 547.7311 544.5224 540.5096 539.9028 541.5253 544.6804 549.5833 551.2699 552.506 553.6867 554.2845 554.386 554.0284 553.1912 552.1238 551.1307 548.803
1386.933 1390.379 1393.302 1397.124 1397.897 1396.026 1391.292 1386.643 1378.367 1371.61 1364.993 1360.258 1354.726 1350.256 1346.755 1343.138 1331.18 1323.987 1334.119 1346.491 1354.087 1358.31 1360.093 1357.801 1352.913 1346.436 1341.693 1340.744 1340.799 1340.561 1340.023 1338.628 1335.724 1332.087 1325.726 1318.522 1303.609 1298.162 1297.25 1297.841 1297.392 1293.156 1287.968 1285.025 1282.482 1280.397 1278.186 1275.042 1270.215 1261.685 1256.262 1250.233 1241.526 1222.987 1212.263 1204.53 1195.565 1178.874 1162.614 1144.393 1129.767 1117.367 1101.635 1087.583 1074.935 1056.495 1060.19 1069.367 1083.465 1086.194 1083.914 1080.092 1071.67 1070.954 1088.246 1103.153 1113.71 1122.629 1129.048 1134.002 1151.469 1162.387 1171.658 1166.459 1171.712 1177.959 1190.086 1200.603 1206.355 1213.905 1220.073 1223.026 1223.436 1222.9 1222.042 1220.745 1218.063 1215.188 1212.116 1209.228 1205.421 1199.215 1192.52 1183.142 1176.78 1169.733 1162.676 1161.179 1162.474 1160.759 1157.726 1155.466 1152.872 1150.552 1150.403 1150.209 1149.251 1148.331 1145.924 1144.938 1145.246 1144.208 1141.989 1140.226 1138.597 1136.981 1133.381 1126.524 1120.746 1115.386 1110.041 1106.409 1102.72 1099.785 1096.04 1092.545 1089.976 1087.441 1082.854 1077.222 1071.733 1066.116 1059.851 1054.1 1049.413 1044.921 1041.616 1040.9 1039.669 1036.697 1033.78 1030.58 1028.24 1024.62 1019.192 1013.936 1008.645 1003.643 997.9019 993.0594 987.6835 977.9827 970.5159 964.9869 957.3994 951.0768 945.0527 943.8775 942.9737 942.4694 940.7561 935.467 931.1274 927.7376 924.6807 922.8145 920.757 918.5397 915.1389 911.0369 907.9192 904.5787 899.8362 896.0465 893.4282 888.6738 883.7173 878.8959 872.9076 868.9242 864.4207 860.9972 859.7606 859.9753 862.2024 867.2526 867.7429 868.0968 863.9882 859.465 857.0947 855.536 853.3911 848.4624 844.1507 838.402 831.9495 827.3873 822.8371 817.4168 812.7565 806.8166 799.3333 794.2842 789.5679 783.834 778.526 773.4608 768.4351 760.2173 749.0932 740.6704 731.4872 729.4174 729.168 733.5585 737.6895 740.629 744.7325 748.9056 751.813 754.9271 755.8396 755.7291 753.9773 751.6793 748.7678 744.0552 739.3312 735.5352 728.0555 711.5861 717.2897 735.3326 748.3842 758.5846 764.1953 767.6156 768.6144 767.5084 764.9083 761.6918 757.8749 752.186 745.6928 740.3849 733.9177 722.4678 714.9974 707.1755 701.8672 699.0593 694.4739 685.6603 673.7047 662.4209 649.4188 643.6657 642.8276 640.6823 636.1061 630.0185 619.3848 614.2541 610.1078 604.8538 597.7129 592.1648 587.0528 584.1648 577.7178 577.4207 577.8979 576.8427 572.6277 563.6612 552.5128 538.1489 532.9926 525.9921 523.9284 529.843 537.5529 541.6921 533.1398 539.6334 549.5135 552.6906 553.3685 546.9249 535.4594 527.1852 547.2554 561.1204 570.6662 576.9799 578.3827 578.1411 576.5908 573.7978 567.3486 561.3661 555.3621 550.7692 545.2896 539.2902 533.087 535.2833 534.3309 530.8486 527.126 527.9161 535.8509 542.8154 549.88 552.7864 554.7933 556.7109 558.6049 560.0583 560.6093 559.9974 559.194 558.339 556.5385
1379.859 1387.658 1392.979 1395.646 1396.899 1396.544 1395.206 1392.408 1385.037 1377.214 1369.751 1364.998 1361.188 1358.101 1355.058 1348.555 1340.46 1328.698 1313.794 1334.267 1343.98 1347.957 1348.882 1346.472 1341.668 1337.836 1334.604 1332.668 1331.195 1328.957 1326.274 1322.715 1318.814 1314.684 1309.741 1301.93 1285.037 1267.407 1269.453 1279.338 1284.219 1278.122 1273.594 1271.554 1267.448 1263.599 1262.426 1259.374 1246.872 1233.317 1223.781 1216.669 1210.231 1199.401 1178.625 1165.568 1156.62 1146.389 1135.206 1113.069 1097.145 1087.464 1074.74 1063.529 1055.307 1047.801 1046.11 1049.194 1051.478 1050.778 1050.079 1050.064 1049.055 1051.111 1065.341 1076.03 1081.927 1088.473 1090.867 1113.212 1125.139 1133.688 1138.06 1129.368 1134.274 1144.012 1155.441 1171.712 1191.217 1201.063 1208.852 1215.812 1221.272 1222.766 1222.181 1220.938 1218.008 1214.196 1210.408 1206.864 1203.665 1199.485 1194.998 1188.837 1182.042 1174.992 1172.797 1172.069 1170.558 1168.085 1165.399 1163.033 1160.893 1158.029 1156.3 1155.087 1153.18 1151.378 1149.802 1148.573 1147.659 1143.959 1140.265 1138.101 1135.817 1132.168 1127.05 1121.071 1112.623 1106.661 1103.328 1101.134 1098.067 1093.305 1089.302 1088.441 1086.317 1082.575 1078.215 1074.847 1071.143 1067.125 1064.235 1059.943 1055.17 1051.509 1047.736 1044.287 1041.333 1038.441 1032.564 1027.742 1023.831 1019.549 1015.264 1009.522 1002.45 994.4548 987.0843 981.4291 976.1409 971.3583 966.6725 963.9734 958.8795 954.1373 949.4902 945.7685 944.4694 943.3636 941.0884 937.7219 934.1856 931.6984 929.8093 926.0882 921.2844 918.2475 913.6234 906.629 903.749 901.3376 897.7516 894.7799 891.9531 887.2438 882.896 878.7905 872.1024 866.83 862.2838 859.446 858.5283 858.8242 859.6276 860.4084 860.6008 859.0307 855.7814 852.3851 849.6089 846.2495 842.1143 838.1484 832.4653 826.2863 821.6818 817.6707 813.046 808.6533 804.0989 798.287 790.9557 781.6772 774.5159 767.3725 761.1389 752.8824 746.1191 745.548 743.5746 740.4893 742.6763 743.7305 745.986 750.7896 758.1451 764.3931 769.9979 774.4525 778.0033 780.161 780.233 778.6483 774.7378 770.1932 763.8078 757.1827 746.4257 739.6626 733.4479 716.6559 720.7384 733.4019 748.4134 759.4546 766.5596 770.8967 771.1766 770.1734 766.9937 762.3016 757.3961 750.4348 743.7328 737.6631 731.8519 723.0319 714.1185 705.9053 696.1663 683.1565 670.4246 665.4932 659.4011 663.1899 667.1965 668.5775 667.5909 662.6716 655.325 647.5037 637.8946 631.9863 627.783 623.0377 615.7495 609.1885 603.8102 598.0148 592.952 585.8573 577.6865 570.3726 565.5313 561.8364 560.0848 555.977 541.3863 540.1761 538.5019 524.8443 511.2324 509.362 511.8275 521.5765 524.8282 525.9091 529.8372 523.7157 512.5636 531.1298 549.6864 564.0068 572.551 577.0467 577.8439 577.1622 574.6166 566.6066 556.8464 546.562 539.5045 533.2808 528.3613 523.0627 515.3199 516.5227 516.6705 513.9739 511.4546 518.5812 529.4354 539.1852 548.3552 552.7345 555.3698 558.1146 560.9432 563.3972 564.4316 564.8414 564.6305 564.2505 563.3914
1376.72 1384.249 1392.147 1394.696 1395.775 1396.248 1395.761 1394.401 1391.273 1385.854 1380.485 1373.084 1366.024 1362.794 1357.985 1351.923 1343.807 1333.223 1304.914 1313.994 1330.109 1335.543 1335.407 1334.918 1333.216 1332.246 1326.995 1316.063 1313.714 1311.747 1308.702 1303.204 1302.174 1298.501 1293.237 1283.379 1268.964 1249.218 1245.542 1256.915 1264.699 1260.875 1254.189 1249.532 1243.105 1237.996 1236.987 1231.883 1223.922 1211.677 1197.192 1192.159 1186.995 1174.082 1157.115 1130.94 1118.753 1107.409 1096.507 1085.004 1076.196 1065.634 1061.896 1065.657 1063.401 1062.038 1051.835 1043.231 1035.67 1031.357 1030.206 1028.92 1026.555 1027.716 1031.525 1039.033 1050.534 1053.611 1070.48 1079.068 1090.841 1102.833 1105.72 1094.167 1102.951 1119.991 1131.518 1145.106 1161.918 1186.305 1198.983 1208.263 1216.44 1221.823 1221.969 1220.393 1216.94 1212.829 1208.636 1205.352 1202.421 1199.461 1196.483 1191.332 1186.921 1183.477 1179.598 1176.498 1174.544 1172.597 1169.594 1166.071 1163.184 1161.241 1160.276 1158.233 1154.963 1152.698 1150.644 1148.769 1145.011 1137.138 1132.784 1130.289 1127.415 1122.851 1116.129 1108.091 1102.221 1097.942 1093.959 1091.365 1088.139 1083.249 1072.863 1074.196 1071.202 1067.335 1062.571 1062.308 1063.696 1062.954 1061.026 1057.976 1054.369 1052.051 1048.562 1041.346 1036.776 1029.674 1022.374 1015.417 1010.382 1004.949 999.9578 993.3074 985.763 975.654 962.4389 960.9518 958.6817 954.2243 951.1949 947.9786 944.3874 939.587 935.537 933.0679 930.5516 928.6686 927.8477 927.1719 926.7241 926.6318 924.726 918.4305 913.1245 907.9428 901.8055 891.6967 887.6158 885.4261 884.0129 882.2123 879.7266 875.5699 871.0151 865.6057 859.8332 854.9443 850.3701 846.3174 843.2447 843.8929 845.9501 846.5745 847.4577 846.463 845.0198 843.0311 840.0963 835.9301 829.0389 823.0471 817.082 810.1935 805.8038 802.1216 798.0834 794.327 790.2061 784.1024 777.0178 770.2253 758.5908 754.5023 757.4048 757.2056 756.4832 752.8956 749.5966 750.5746 757.5082 761.2026 765.0985 772.8829 780.3851 787.2617 793.2294 798.0652 800.3265 802.2044 801.166 796.7296 789.4132 779.6492 768.9101 756.9513 745.3634 733.1418 723.4445 729.2096 736.1503 745.3398 754.9565 762.9772 769.0942 772.2141 772.5732 771.4426 767.7041 760.6577 753.5923 745.1543 737.965 731.7889 724.247 716.0143 708.7846 701.0114 694.1794 679.8324 669.9608 676.4413 683.0372 687.5202 690.0119 690.2384 686.7265 681.1661 674.5718 666.5953 660.262 653.8626 648.1471 642.9652 637.6197 632.6445 627.3718 621.888 616.7512 611.3456 605.1904 598.6702 590.8311 582.5217 570.9489 553.5418 557.1313 563.5613 557.2571 546.5609 535.6694 523.1484 509.9971 498.0665 492.5439 489.7921 499.8243 498.3469 514.7817 534.9975 552.2333 564.9737 572.9833 576.7498 576.8502 574.3292 569.0181 560.8497 549.7499 536.2214 525.6518 521.557 517.2316 514.7325 510.3972 499.1846 500.7076 498.7632 496.6423 510.635 523.2336 534.4634 544.4294 551.2732 553.792 556.71 560.6883 564.5039 566.3853 567.6431 567.9926 567.6677 566.7074
1372.523 1378.268 1386.133 1391.409 1392.915 1394.458 1394.811 1394.361 1393.617 1392.187 1388.027 1383.507 1378.003 1366.546 1359.836 1352.935 1345.861 1336.288 1320.072 1295.031 1302.389 1313.648 1319.542 1311.239 1312.393 1317.122 1310.669 1299.012 1294.643 1288.743 1285.788 1280.012 1284.016 1280.655 1271.92 1258.91 1245.271 1229.165 1225.116 1232.641 1233.599 1230.429 1228.066 1227.642 1219.971 1208.847 1203.748 1199.334 1191.857 1182.305 1174.86 1160.151 1153.732 1137.615 1118.784 1104.388 1094.139 1087.655 1082.366 1085.921 1091.156 1094.233 1092.794 1106.008 1102.397 1104.327 1098.288 1091.611 1083.676 1069.2 1055.376 1047.856 1038.211 1021.512 1014.124 1013.38 1014.591 1026.897 1032.468 1044.165 1057.266 1069.712 1073.386 1071.932 1083.264 1091.745 1109.565 1129.77 1151.247 1179.578 1194.745 1205.891 1213.131 1219.137 1221.755 1219.546 1216.024 1211.101 1206.959 1203.666 1200.509 1198.024 1193.929 1188.838 1185.553 1183.024 1179.29 1176.318 1174.571 1172.825 1169.518 1165.341 1162.222 1159.472 1156.78 1155.495 1153.776 1151.867 1149.921 1148.015 1144.769 1137.712 1129.907 1121.321 1117.01 1111.909 1104.284 1095.745 1087.785 1083.387 1076.729 1071.369 1064.445 1062.36 1057.343 1048.967 1048.523 1045.561 1043.09 1042.867 1045.647 1049.852 1049.937 1047.9 1044.442 1042.742 1037.372 1027.172 1018.813 1012.072 1003.473 992.5795 986.8807 982.1094 976.0892 970.5528 964.5624 955.4491 946.518 937.7571 931.5842 930.8571 927.944 924.0849 920.1548 917.0135 913.9288 910.1804 907.3502 905.3215 903.4125 902.6628 902.5936 904.5697 901.1902 896.7868 892.2536 887.6746 879.9094 869.2833 862.6943 859.4861 855.9064 852.8196 852.5712 848.2388 844.9346 841.7068 838.7847 835.5667 832.1346 829.2677 827.4978 822.4991 818.1461 817.5419 819.94 825.8542 829.9371 830.1066 828.2957 823.5032 815.218 805.9197 796.4488 787.1111 780.6277 779.6225 776.172 772.7733 770.0589 767.5734 765.3317 765.8809 769.7609 772.8464 772.2515 769.0096 763.6092 756.3787 758.8788 770.587 776.037 781.1722 784.3712 792.6516 799.8857 806.8577 812.5458 816.2192 818.4881 816.939 814.6603 808.7582 794.7606 776.5706 762.1009 748.4839 736.3002 735.4607 739.5049 743.7808 750.9207 758.0616 764.1119 769.7184 774.1039 775.9597 774.8069 772.3033 767.7577 760.3521 751.6367 742.125 732.04 721.6488 713.1999 705.8463 696.2234 692.8636 684.5566 683.0701 691.99 700.0255 704.5432 706.1337 707.6216 706.6812 702.8286 697.0544 689.519 681.9886 675.9462 670.9433 665.2504 659.8768 653.9057 647.5454 642.541 637.6904 632.194 626.1934 618.0955 607.3448 593.4055 576.4363 569.6309 576.9636 580.2963 579.616 574.8608 564.9573 555.2435 545.6157 536.9214 528.7302 517.4717 499.9297 480.8506 502.2148 527.435 542.7938 554.329 562.567 568.9135 572.9393 574.2155 570.3409 565.2049 556.1176 541.9103 530.5775 521.397 513.2335 502.6164 501.3552 497.6181 490.7092 479.4402 480.4577 493.2323 506.5844 516.1285 522.965 527.7356 536.4855 543.4796 549.6461 554.345 561.0267 566.308 568.4985 569.5665 569.6903 569.1917
1366.929 1372.836 1377.974 1384.99 1389.338 1391.94 1393.093 1393.152 1392.848 1392.45 1390.808 1386.115 1381.564 1372.173 1361.844 1353.957 1347.519 1340.915 1336.452 1320.8 1290.604 1277.674 1277.4 1272.838 1267.84 1274.734 1276.82 1269.396 1266.638 1258.853 1255.568 1253.063 1254.153 1249.719 1243.349 1233.776 1226.539 1209.823 1198.127 1199.657 1198.41 1193.892 1193.59 1192.894 1182.938 1169.334 1165.83 1154.958 1149.087 1139.88 1136.406 1125.606 1116.797 1107.659 1103.558 1109.109 1114.104 1113.891 1122.812 1127.612 1131.762 1131.226 1125.78 1144.08 1134.193 1140.208 1136.541 1130.756 1128.863 1114.466 1094.102 1089.7 1077.097 1059.938 1039.658 1025.246 1009.564 1002.771 1001.77 1008.356 1024.676 1038.099 1043.924 1048.734 1070.394 1089.852 1110.295 1129.984 1149.557 1170.4 1184.163 1197.387 1207.98 1215.116 1221.798 1221.567 1218.504 1210.458 1205.794 1201.822 1196.818 1192.787 1184.423 1181.296 1178.801 1176.653 1174.466 1172.016 1169.666 1166.433 1161.544 1158.145 1153.895 1152.071 1151.297 1150.907 1150.528 1149.717 1147.947 1145.325 1142.904 1139.009 1133.505 1125.724 1118.419 1110.195 1105.586 1103.561 1099.62 1093.306 1085.814 1076.514 1069.347 1061.791 1056.219 1048.745 1042.114 1036.039 1026.023 1027.251 1026.877 1028.163 1030.459 1029.238 1026.829 1023.558 1016.556 1006.549 997.0001 989.6035 981.2063 972.0211 964.2508 961.8707 952.3518 948.3813 942.8673 938.5754 936.9338 938.4269 936.6372 933.1605 928.9556 926.0745 921.2936 918.3381 916.4452 913.0576 909.9897 907.6907 903.31 898.8205 895.5074 892.6605 886.782 884.3707 883.384 882.6085 880.0243 880.2418 880.9613 879.0904 875.4769 871.125 866.931 862.0863 859.2772 856.1042 851.9773 849.851 847.9276 844.3953 840.0547 835.0816 829.4193 824.174 818.3908 811.538 804.7417 809.2729 809.9839 805.8111 797.2154 790.1735 791.9032 795.1549 794.8835 795.2331 793.2885 790.2935 788.2615 787.194 786.6202 786.4402 786.7007 786.3754 783.9033 779.2645 770.738 765.4813 770.7086 781.3182 789.7634 798.792 805.4381 810.9306 816.6984 825.1219 830.1002 831.0525 831.579 827.963 821.7498 806.3117 785.4421 767.6675 754.8624 743.5281 747.1 752.5531 758.6103 762.8442 766.6086 770.4163 774.1442 778.7139 782.4203 780.5732 777.2609 773.2364 768.2722 761.67 753.397 743.9722 738.4737 731.3298 721.4682 716.9023 711.3644 704.5931 695.1014 699.7606 709.7118 713.3546 715.2856 716.4195 716.997 716.2271 713.7122 710.1185 704.0817 696.8132 688.4147 681.5721 675.781 670.9274 665.2131 660.6237 654.5563 648.5928 640.956 631.7131 620.2798 605.4651 586.733 589.8967 593.271 595.2238 595.6582 591.6601 583.8597 574.4755 564.5367 553.6156 542.7968 530.2515 513.0674 492.2925 475.0895 505.0198 533.0188 547.7482 553.6954 557.4296 561.001 562.9909 562.8369 561.6104 558.2097 551.9532 542.5874 532.5999 521.7323 509.3086 495.7427 479.7047 478.0718 471.2624 468.0243 484.6118 497.3834 505.1129 511.1096 514.2864 516.6168 519.5536 523.9927 532.9512 537.5587 546.1273 555.7031 564.1517 568.302 568.8088 568.6727
1371.359 1376.336 1382.488 1389.262 1392.205 1392.084 1391.394 1390.921 1391.063 1390.873 1388.946 1384.897 1381.281 1375.063 1365.698 1360.137 1355.827 1353.375 1349.173 1342.208 1329.724 1311.634 1300.283 1296.47 1278.945 1260.449 1252.43 1243.595 1234.165 1227.357 1221.761 1216.959 1215.479 1210.181 1207.842 1201.631 1195.102 1182.792 1176.773 1172.738 1166.747 1160.573 1156.02 1153.069 1148.284 1143.627 1139.514 1133.438 1129.188 1124.391 1126.909 1130.771 1132.142 1135.565 1143.909 1150.503 1149.915 1144.999 1162.479 1171.283 1172.749 1169.061 1163.285 1172.267 1158.855 1164.429 1172.829 1170.82 1166.635 1152.448 1131.038 1130.653 1113.213 1097.229 1076.425 1062.756 1044.4 1018.508 1004.543 994.0283 999.6798 1011.481 1028.634 1046.872 1070.166 1086.285 1102.378 1117.27 1132.439 1146.479 1166.014 1186.336 1198.127 1206.309 1213.591 1219.103 1217.803 1211.35 1205.974 1200.865 1196.187 1189.974 1184.593 1173.202 1166.993 1165.466 1163.922 1160.44 1155.372 1149.602 1139.567 1131.919 1131.521 1134.738 1137.589 1137.315 1135.078 1137.393 1140.072 1140.957 1140.454 1139.104 1136.672 1132.599 1128.224 1123.596 1120.149 1116.312 1112.188 1105.497 1097.903 1092.172 1087.26 1078.605 1069.89 1060.287 1054.707 1052.139 1044.635 1034.231 1024.753 1013.215 1006.534 1004.161 998.6108 994.4584 989.494 983.9638 976.7185 971.4901 969.5879 970.4739 970.8068 967.7256 962.9723 959.2745 958.2806 959.7746 960.2947 958.5486 955.5587 951.5374 946.951 941.8884 938.8369 937.8774 934.2375 929.5547 924.9801 920.9189 917.1104 914.6724 912.5601 909.9677 906.3807 904.2081 903.513 902.3375 899.5665 896.5936 893.6007 890.2719 887.2418 884.1688 880.9804 877.2404 872.149 867.4708 862.6116 859.8745 857.8167 854.1545 849.9051 845.5173 839.8024 833.5696 827.8495 826.2633 823.6201 817.3141 809.747 808.325 809.6469 805.5936 809.1093 811.0453 811.0851 810.0577 807.5638 804.3385 802.2095 800.8297 799.3166 797.9993 796.4451 794.425 790.6483 784.7532 774.7305 767.7709 779.0195 789.6918 800.6555 812.1887 823.5385 830.8688 834.4343 841.5135 842.3056 837.8479 833.9241 831.6494 815.1722 793.0217 775.6876 762.5657 753.0477 758.1771 763.7587 768.4835 772.0813 775.5698 779.0778 782.1038 783.5049 784.6541 784.894 782.5844 778.7557 774.6074 770.0703 766.4576 761.1404 755.4849 747.7474 741.937 737.1216 732.939 723.9764 714.2318 706.0637 711.7006 717.1121 720.2965 724.7477 727.4528 726.7858 724.6533 721.7717 717.5699 712.614 705.7877 696.931 687.694 680.5524 674.8823 669.0706 663.4993 657.736 649.8232 640.8112 630.4617 618.5296 603.3819 601.9283 609.5661 610.879 611.4224 608.2775 599.6887 586.5742 572.4285 559.9363 543.999 533.6058 521.1242 503.5526 483.84 474.5397 497.1905 525.7064 540.6831 545.2129 546.6138 548.0199 549.5057 550.1184 549.4271 547.2279 543.8573 539.2499 531.9116 522.276 510.4489 498.4537 483.5654 465.6018 450.1138 471.95 482.6306 489.0148 492.0852 496.4753 500.6049 505.3163 512.328 521.601 527.3262 530.4854 533.6639 537.791 547.1173 559.8425 563.7582 563.7475
1383.878 1387.6 1391.146 1392.891 1392.097 1390.865 1389.474 1388.316 1387.801 1386.935 1384.797 1381.859 1378.302 1375.844 1371.748 1368.688 1367.355 1364.856 1361.257 1356.768 1347.09 1328.727 1321.075 1318.486 1308.735 1292.071 1292.903 1286.862 1270.761 1255.178 1246.466 1242.491 1232.53 1223.939 1215.425 1216.513 1213.707 1206.208 1198.669 1202.554 1202.075 1205.009 1200.447 1193.74 1186.069 1174.286 1166.511 1166.7 1167.939 1167.304 1170.196 1170.281 1170.4 1175.772 1187.299 1188.11 1179.475 1177.453 1182.432 1200.728 1206.633 1202.89 1203.549 1207.974 1194.655 1195.904 1209.092 1208.854 1195.889 1184.051 1174.07 1156.581 1133.23 1117.046 1089.574 1069.064 1060.891 1044.491 1018.287 996.8701 987.3979 1002.502 1015.884 1034.133 1053.406 1066.188 1078.632 1087.331 1103.934 1125.657 1146.228 1169.823 1182.727 1188.432 1199.177 1208.562 1211.347 1210.016 1205.431 1198.92 1193.982 1188.526 1182.666 1174.688 1163.612 1148.823 1143.838 1142.615 1136.431 1125.864 1114.681 1106.543 1107.239 1108.584 1109.382 1110.509 1111.428 1114.873 1124.39 1132.934 1136.617 1138.099 1137.61 1136.756 1134.08 1130.109 1126.695 1123.582 1117.867 1110.835 1104.065 1097.958 1092.549 1086.919 1080.805 1075.049 1069.363 1062.587 1056.547 1049.141 1041.15 1033.576 1026.906 1020.179 1013.997 1009.678 1005.771 999.9451 995.6493 993.0677 992.407 990.6063 987.8596 985.0788 981.3513 978.2663 977.6912 978.6859 979.177 977.8085 974.2194 969.1183 963.3975 958.7023 955.7427 952.7115 948.8405 943.6752 938.5504 933.6387 930.2902 928.5729 925.7006 923.0629 920.6713 918.0735 915.1001 912.0368 908.9083 906.0604 902.9006 898.8411 895.0906 892.2311 889.1017 885.2122 881.0581 877.1371 872.2756 868.7482 866.6499 863.7839 860.2697 856.348 850.7513 843.5995 840.7557 840.1263 839.0958 836.51 833.102 829.2975 825.2061 820.6743 822.5621 822.9896 822.7125 821.0273 818.6509 816.1194 814.0676 811.246 808.954 807.573 805.1387 801.0985 796.0296 787.3203 777.4317 775.511 787.0331 798.0065 808.8405 819.3471 831.2549 843.6259 847.907 848.5771 846.0192 839.773 831.129 820.6824 803.3657 785.2378 770.63 761.565 769.05 774.6984 778.2475 780.9136 783.8421 786.6204 788.7486 790.1942 790.8967 790.0498 788.4127 784.8184 781.3478 779.4681 777.059 774.0117 770.3519 764.3003 758.4326 751.1359 743.5436 737.4611 729.1853 718.2012 719.303 724.1728 729.2274 734.2122 736.1981 736.155 734.1735 730.9484 726.7971 722.267 716.0294 708.358 698.2838 687.8264 679.3269 672.6262 664.1002 656.5238 647.8624 641.8768 635.1489 624.4965 612.4704 614.7421 625.7649 631.2285 630.2516 623.8586 612.3306 599.7142 582.4742 566.0612 549.5674 534.77 520.287 505.5221 493.5172 477.936 461.5397 478.2063 497.149 518.7306 528.1406 530.6519 531.5535 533.9773 535.6687 536.0165 535.2175 532.9444 529.9612 526.0144 519.9647 511.4189 498.7095 483.6392 460.9862 441.1511 457.0206 468.6252 472.383 472.392 475.1263 482.1392 495.3769 507.2409 515.9778 521.9862 526.2035 528.9116 531.9114 535.631 542.004 549.0622 550.9367
1393.43 1393.555 1393.163 1392.503 1390.899 1389.007 1387.29 1386.128 1385.114 1383.878 1382.004 1379.768 1377.485 1375.799 1373.837 1372.037 1370.523 1369.326 1367.666 1362.518 1351.159 1337.644 1329.924 1326.048 1316.452 1314.349 1315.578 1308.51 1292.986 1269.861 1268.186 1273.443 1267.203 1258.007 1249.79 1250.092 1252.566 1249.023 1240.209 1244.96 1242.357 1243.152 1240.322 1230.976 1219.53 1207.942 1203.922 1207.545 1212.308 1211.056 1208.492 1206.198 1207.869 1212.249 1218.146 1216.844 1212.043 1211.663 1208.289 1223.006 1240.398 1235.691 1239.375 1239.236 1229.931 1227.493 1230.258 1233.905 1219.98 1204.682 1178.463 1157.43 1144.382 1129.827 1115.608 1105.487 1082.124 1058.774 1032.6 1009.859 991.3873 980.4297 990.6495 1006.07 1025.508 1030.289 1043.409 1071.453 1093.283 1112.305 1127.581 1142.498 1154.895 1165.213 1181.834 1195.461 1201.764 1203.253 1200.818 1196.611 1190.384 1185.225 1179.266 1171.78 1162.106 1150.355 1135.796 1123.776 1115.066 1106.748 1099.196 1086.614 1081.554 1079.782 1079.035 1081.109 1084.294 1089.658 1096.881 1110.538 1124.783 1131.739 1133.901 1135.366 1133.807 1130.702 1127.418 1124.648 1120.221 1113.717 1107.645 1101.22 1096.135 1092.08 1088.126 1082.931 1078.452 1074.002 1065.881 1058.877 1051.797 1046.144 1040.994 1036.067 1032.032 1027.761 1022.633 1017.767 1013.86 1010.411 1008.286 1006.347 1002.891 1000.585 998.9078 994.6315 992.1967 991.8528 990.7492 988.7048 984.8538 980.5613 974.4227 969.8487 966.8544 962.5765 956.136 951.1108 946.5392 942.3646 939.6157 937.7667 934.207 930.3987 927.2339 923.7312 920.038 917.2228 913.2313 908.7916 905.6979 902.0336 898.5532 895.7793 894.072 892.0304 888.7728 885.3114 881.9152 878.7157 875.5701 872.6442 869.3928 865.5685 860.3581 854.6282 853.3538 851.8599 850.1203 847.3444 844.8953 842.1714 836.6324 833.3521 833.5266 832.3771 830.8796 828.7574 826.3401 823.606 821.1107 818.1619 815.0132 812.0879 809.2563 805.5052 795.7609 783.6354 782.066 780.4679 789.0355 803.3407 815.9086 827.4965 840.9007 850.243 856.1256 853.5623 847.9786 839.3963 825.9678 811.9393 794.4197 783.2936 770.4386 778.8972 784.7749 788.0067 790.0392 792.4688 795.1774 795.5912 795.879 795.8369 795.4257 794.3456 793.5939 793.174 792.4556 789.4522 785.5522 781.7219 777.2682 770.2813 764.4838 757.3127 749.3293 742.113 730.9988 731.3054 733.4796 736.1359 738.774 740.556 741.1897 740.4266 738.0397 734.825 730.1823 724.4506 717.3286 706.8265 694.7595 682.9219 678.3592 673.9016 668.4296 661.5232 657.4777 647.838 632.8007 629.7775 636.8586 641.5372 643.4216 641.3566 636.3511 626.2694 614.0933 601.1149 585.0656 568.207 549.5142 538.093 523.5153 511.4635 501.7545 489.3508 469.1229 457.0557 470.9539 485.2105 499.1544 505.429 504.6333 511.1318 516.7801 519.0448 519.2647 518.1137 515.6566 512.8171 510.0153 505.0968 497.7002 485.1255 467.9406 443.9236 436.1847 446.4164 449.6743 449.7505 458.2656 474.6075 487.4928 502.8378 512.1598 516.6814 520.3525 523.9912 527.2959 530.0995 533.5358 537.0211 538.9075
1393.734 1392.926 1391.223 1388.401 1385.158 1384.076 1383.687 1383.294 1382.751 1381.889 1380.341 1378.419 1376.296 1374.679 1373.305 1372.26 1371.234 1370.227 1369.267 1367.973 1356.656 1343.24 1337.177 1334.358 1332.163 1329.054 1329.872 1324.04 1311.529 1295.019 1290.548 1293.285 1292.405 1292.363 1288.427 1291.702 1297.976 1288.085 1281.653 1285.477 1286.125 1286.418 1278.343 1264.185 1250.675 1238.528 1234.785 1239.271 1245.329 1248.949 1246.333 1242.986 1245.847 1248.88 1249.769 1248.159 1244.532 1243.489 1241.622 1247.316 1259.596 1259.328 1259.244 1259.281 1255.585 1247.777 1242.433 1237.421 1230.317 1214.051 1198.06 1184.401 1174.272 1162.027 1139.176 1119.279 1095.046 1071.024 1047.143 1020.001 1007.427 983.5997 972.8253 981.2492 1002.453 1021.315 1040.316 1059.592 1075.576 1089.083 1097.038 1109.457 1124.614 1138.987 1162.699 1177.516 1183.112 1188.39 1190.618 1188.922 1184.345 1179.016 1175.373 1171.941 1165.682 1161.546 1147.448 1138.13 1133.651 1129.684 1120.444 1102.455 1089.174 1071.604 1051.613 1039.49 1049.546 1062.227 1075.655 1091.236 1108.685 1122.961 1127.507 1128.874 1128.744 1127.554 1125.495 1122.86 1119.648 1115.083 1110.358 1104.926 1100.017 1095.703 1090.883 1086.179 1081.769 1075.961 1070.256 1064.638 1060.552 1056.017 1051.57 1046.89 1042.082 1037.307 1033.254 1029.927 1027.011 1023.906 1021.02 1018.534 1015.067 1011.52 1008.385 1004.604 1002.683 1000.895 997.2773 993.6932 990.1029 985.5106 980.7648 976.5922 971.4443 965.0023 960.515 956.2822 952.1198 947.7658 944.2698 942.1649 937.9508 932.6156 928.8488 922.921 917.734 913.3608 908.2923 904.5628 901.0857 897.6521 895.4553 894.5732 893.9136 893.6483 892.8343 890.0455 886.9125 884.2071 882.0562 880.1378 877.194 872.6111 867.5538 863.6547 860.6702 858.3774 856.5562 853.7892 850.4851 847.6198 845.0222 842.9705 840.1055 837.8268 835.8367 833.7437 831.0645 827.8619 824.4058 821.2422 818.2734 813.7825 808.5916 801.9112 792.9412 794.0839 795.0297 794.6766 792.2706 804.9093 819.6578 834.9285 846.6736 854.2046 857.429 856.5654 848.2373 835.3668 821.6292 806.6061 792.1331 783.7784 785.4288 791.5764 795.0319 796.4509 797.4672 798.2682 798.86 798.9705 798.5652 797.7274 796.773 796.158 796.1272 796.3729 796.6303 796.5552 794.3534 789.4883 785.0207 779.7349 771.8578 763.2386 755.2542 746.619 746.7759 747.6432 746.6439 746.9097 747.1443 746.9412 746.5257 745.4291 741.9652 736.7986 731.0163 724.1932 714.9343 708.6913 704.4849 697.8602 684.2262 673.9059 665.9695 659.6514 653.322 647.5435 650.9553 652.2764 653.8344 652.3722 649.4748 643.1688 635.5875 626.4662 616.7138 606.8937 596.1942 580.4881 569.4909 559.385 548.2532 537.4659 527.1127 507.7047 486.7183 467.2618 447.7275 456.4391 468.2291 474.61 471.0803 478.1637 485.0034 490.0783 492.8601 493.0306 492.4608 491.5038 490.2821 488.9909 487.4781 483.8947 476.7637 457.5799 432.1702 424.0567 427.0637 435.2069 449.9356 469.5573 486.086 500.6476 504.7404 508.993 513.6012 517.1951 521.1179 524.7608 527.1447 527.8292 527.0165
1391.89 1389.903 1386.91 1382.126 1378.117 1378.886 1379.635 1379.679 1380.078 1379.891 1378.484 1376.272 1373.584 1371.127 1370.341 1370.264 1370.178 1369.774 1368.911 1367.646 1362.44 1354.961 1345.81 1341.405 1338.83 1337.762 1338.918 1337.699 1331.207 1317.35 1309.834 1315.749 1320.302 1321.624 1321.621 1323.472 1325.385 1317.594 1313.751 1315.313 1311.595 1306.835 1300.412 1290.671 1277.74 1266.523 1267.248 1271.429 1277.017 1279.817 1278.933 1283.03 1278.735 1275.872 1273.149 1270.314 1267.379 1264.564 1261.953 1261.973 1262.132 1262.23 1261.093 1258.538 1251.079 1241.584 1233.993 1228.253 1223.819 1220.085 1211.558 1203.573 1190.103 1171.323 1146.245 1124.142 1098.496 1074.183 1063.445 1060.053 1035.316 1010.716 980.4434 967.697 979.4561 996.7119 1019.947 1039.004 1052.829 1062.165 1069.172 1080.266 1101.812 1120.248 1137.163 1151.75 1160.87 1165.464 1167.634 1166.677 1164.871 1162.919 1159.974 1158.418 1157.651 1155.493 1153.05 1150.01 1148.88 1147.413 1138.337 1123.772 1110.347 1092.841 1066.334 1042.665 1020.354 1031.298 1046.049 1072.412 1090.416 1104.226 1115.9 1121.218 1121.546 1122.477 1121.137 1117.936 1116.148 1113.611 1110.318 1106.118 1102.355 1098.955 1094.077 1089.511 1084.854 1078.256 1072.924 1069.188 1065.633 1061.665 1056.843 1052.941 1049.564 1044.35 1040.034 1036.458 1032.635 1029.76 1027.443 1025.036 1021.128 1017.747 1014.877 1011.492 1007.504 1003.844 999.9116 995.9843 992.5246 988.9491 984.2164 979.9333 975.0124 968.6208 962.9199 955.7617 950.7459 944.9501 940.5159 934.1392 928.533 924.3107 918.9229 912.7567 906.2988 898.4725 887.3779 881.5713 878.3784 876.9758 881.5908 884.4933 886.7409 889.2012 891.9816 892.0237 889.4802 886.8144 884.6199 882.6038 880.6387 876.4654 871.0919 866.5201 863.5757 860.6854 858.4582 856.2103 853.7048 852.0585 851.5308 849.4785 845.2167 841.6525 839.5712 836.2891 832.9374 829.6559 825.5812 821.4744 817.6323 813.838 810.0048 806.9374 802.7184 803.5622 806.61 807.2332 805.9822 815.4334 823.7804 837.8204 849.6731 857.135 858.0227 856.3007 847.6411 835.5363 822.5341 805.6907 794.1849 790.7786 796.4274 799.8082 801.5961 802.2886 802.3406 802.1544 801.745 800.7894 799.2365 797.2891 794.4888 794.3145 795.3919 796.1757 796.9936 797.0903 795.4488 791.0179 786.3687 782.2095 777.1697 772.393 766.9012 761.4738 760.7438 759.6579 758.28 756.2501 753.7957 751.3256 749.2708 747.4116 744.3068 738.3344 732.8844 726.774 721.3012 715.368 710.2805 703.3207 695.0015 683.7205 676.8901 668.5596 664.0751 665.0567 664.8698 663.1959 659.4039 653.3686 647.3018 639.48 631.525 623.3502 613.7653 605.4171 598.2177 589.0948 579.1238 569.7328 559.8444 549.2575 541.1794 528.45 511.1093 490.1385 468.589 449.7838 438.4881 443.7708 440.7319 444.556 447.4361 450.582 454.8852 457.1923 457.4794 458.1938 458.98 459.0827 458.4015 454.4648 451.1489 447.61 434.3204 413.4903 414.1708 434.2391 451.8904 470.6856 481.1143 483.4939 484.073 490.8662 497.737 504.8407 512.0004 515.3849 517.2867 517.3669 514.8793
1390.932 1387.45 1383.953 1379.327 1376.71 1375.123 1374.673 1375.099 1375.512 1375.742 1374.814 1372.777 1370.195 1367.094 1365.961 1367.115 1368.365 1368.525 1368.06 1365.704 1362.402 1357.817 1351.433 1346.436 1343.477 1342.823 1345.716 1346.322 1344.183 1337.214 1327.715 1326.359 1329.683 1335.832 1336.951 1335.856 1334.717 1334.076 1333.7 1331.257 1325.085 1319.208 1313.638 1306.375 1297.914 1292.388 1292.426 1296.905 1299.146 1298.951 1297.987 1295.99 1290.878 1284.375 1278.835 1274.386 1271.806 1268.265 1261.351 1256.678 1255.373 1254.898 1250.318 1238.942 1219.896 1214.414 1209.418 1204.25 1198.884 1195.17 1193.331 1192.08 1189.203 1178.437 1155.638 1139.688 1124.96 1110.561 1104.204 1085.006 1061.133 1034.531 1004.809 977.3328 962.9692 966.5497 990.5075 1013.785 1026.417 1027.831 1046.177 1070.753 1086.35 1096.748 1107.787 1115.557 1128.834 1136.541 1132.431 1130.424 1132.543 1135.826 1137.109 1137.058 1136.517 1136.947 1137.898 1134.574 1135.298 1136.381 1133.489 1125.891 1112.61 1091.52 1065.626 1038.412 1006.927 1011.137 1026.027 1046.522 1068.959 1080.791 1088.857 1093.903 1100.2 1104.51 1103.903 1104.908 1107.648 1107.292 1105.506 1103.229 1100.564 1097.691 1093.934 1089.779 1085.557 1080.414 1075.73 1071.028 1066.278 1062.295 1058.375 1054.749 1051.89 1048 1041.654 1036.971 1033.899 1031.006 1028.858 1026.355 1022.911 1019.044 1016.375 1013.084 1007.95 1003.353 999.1324 995.0237 991.6603 988.2999 982.6992 977.6844 971.8412 964.3351 956.3339 948.2982 940.4114 933.2425 925.1568 917.2571 907.7164 904.4026 897.8088 889.5902 882.1315 873.0401 860.7217 848.3735 848.6939 847.1881 856.7161 863.3331 872.9348 879.8188 884.3737 887.9796 888.2868 886.5883 884.8835 882.9391 880.946 877.5863 870.6433 866.0565 863.5446 860.9841 858.7722 856.8127 855.4989 855.4179 855.6772 855.7883 855.213 846.6797 841.8799 836.3846 831.822 828.7534 824.6199 820.5764 817.0355 812.3824 808.833 805.8148 804.294 807.498 810.2766 814.4638 819.3029 825.7952 833.8976 843.2721 853.7231 859.0717 859.1757 855.1967 845.7673 834.1891 821.5998 810.1713 800.3561 800.4003 805.6263 807.3476 807.5821 807.1388 806.1503 804.8939 803.2532 800.6074 797.8187 794.5691 791.2169 788.4139 787.4136 786.3778 785.6691 785.1284 784.7798 784.081 782.1769 779.2969 776.3011 773.4555 770.5909 767.2168 763.8606 761.5222 759.9561 758.3851 755.4422 752.351 749.7366 747.6392 744.0464 738.2288 732.725 726.8147 720.8076 714.05 707.3317 703.0037 696.0786 684.4613 679.9401 673.6309 674.7484 673.8392 669.8547 663.5343 657.5025 649.6089 641.5088 632.8973 625.1788 615.0864 604.224 594.1672 586.1756 577.8951 571.7874 564.6977 557.2358 550.1655 541.7245 528.5649 511.9752 494.4998 473.8362 456.7388 438.6029 437.4792 439.1189 433.783 426.6964 421.7181 419.8676 420.5321 423.5017 427.4944 429.1334 425.3344 422.362 419.3279 418.3338 422.195 420.5238 402.1529 412.5179 433.1204 451.1056 461.0045 462.6447 459.5601 454.4918 466.2754 478.9325 484.6139 494.3053 505.1425 509.0336 508.7172 504.9813
1388.476 1385.742 1383.233 1380.941 1377.563 1370.921 1367.491 1369.415 1370.649 1370.927 1370.461 1369.679 1368.507 1366.42 1363.581 1364.178 1365.451 1366.87 1367.159 1367.528 1364.58 1359.408 1356.031 1353.871 1351.833 1352.195 1352.398 1353.379 1350.207 1346.11 1342.39 1341.788 1342.861 1344.183 1343.118 1337.879 1332.512 1330.727 1330.631 1331.665 1332.003 1327.187 1322.247 1319.849 1312.945 1307.408 1307.288 1308.123 1307.905 1305.64 1301.642 1297.669 1292.524 1282.384 1274.85 1270.1 1268.511 1265.366 1258.62 1247.648 1238.36 1232.752 1228.252 1219.952 1203.652 1189.123 1183.014 1177.54 1170.963 1168.435 1165.714 1164.502 1164.632 1164.93 1162.17 1152.756 1141.919 1130.403 1115.173 1093.229 1065.354 1043.668 1015.669 986.7219 968.7829 958.535 965.1119 985.4293 997.7029 1023.571 1039.83 1053.308 1064.212 1069.372 1071.197 1086.122 1094.358 1098.107 1089.22 1085.817 1089.036 1094.334 1098.875 1104.333 1108.015 1106.099 1094.696 1099.006 1110.398 1113.492 1112.572 1110.345 1102.81 1084.301 1056.104 1028.643 999.949 989.2209 1005.223 1020.632 1036.741 1052.833 1063.19 1070.379 1076.199 1081.267 1083.534 1085.062 1087.449 1090.885 1093.95 1094.194 1093.96 1093.023 1091.149 1088.78 1084.841 1079.844 1074.925 1069.802 1064.459 1060.264 1056.25 1052.209 1048.701 1043.338 1037.632 1034.359 1031.549 1029.544 1027.799 1024.723 1018.413 1014.619 1012.065 1008.07 1004.192 999.1714 993.5771 990.1586 985.5173 980.8104 975.8911 970.3461 964.1924 952.5086 944.1943 936.4386 926.4541 915.6404 905.5557 892.4015 880.2423 871.7861 868.8486 861.5521 854.2241 845.4782 838.937 821.5624 818.854 819.2482 824.7057 839.2213 850.9605 862.855 875.1393 881.799 884.0308 884.2292 883.4138 881.7093 879.7097 874.9963 868.5668 864.6402 862.119 859.6177 857.0912 854.9999 852.7816 852.7571 852.6774 850.6201 844.8172 841.3676 838.1598 833.52 829.2527 826.1103 822.6116 818.7585 814.9962 808.4675 803.1509 796.374 791.4043 798.2898 807.4955 816.0029 822.9835 832.3191 844.0447 852.8716 859.6768 865.202 862.8025 856.5187 846.15 831.8597 820.9304 811.7253 805.7382 808.7678 811.3155 811.7817 811.0641 809.8995 808.452 806.7383 802.9337 798.6895 794.735 790.1319 785.018 780.7444 776.9774 773.8848 771.2663 768.3715 767.2277 768.4047 769.6104 769.988 770.1555 769.8952 768.3685 765.7104 762.7774 760.105 757.5854 755.0665 751.9453 749.2318 747.1873 744.7473 739.4336 733.6871 729.4883 724.8239 719.7361 715.1093 711.0831 705.5157 697.2706 689.0956 686.0578 684.6352 679.8315 674.4617 668.5907 661.3051 653.2742 644.8173 635.5406 627.4943 618.0881 605.5168 591.7411 578.282 566.3459 558.1935 553.1964 548.2938 542.7272 538.0273 528.4437 512.4202 495.2007 475.3166 456.403 444.9535 457.1138 467.047 463.5446 461.5782 456.5232 450.3195 444.1228 440.1487 435.4284 428.1294 414.6031 414.9048 416.2399 414.0927 403.7088 391.4102 393.8522 391.9821 407.9345 421.9472 429.6233 432.6171 432.6665 429.9998 425.4954 437.5328 454.1575 475.4064 491.4639 501.6981 504.2216 504.0671 498.9451
1383.887 1382.61 1380.673 1378.488 1373.736 1368.173 1363.198 1362.874 1365.453 1365.902 1365.487 1364.734 1362.966 1358.664 1356.438 1359.596 1361.908 1363.497 1364.968 1365.687 1362.446 1357.619 1355.829 1356.372 1357.259 1357.244 1357.379 1357.119 1354.983 1351.826 1348.113 1346.078 1345.258 1343.882 1337.741 1328.823 1321.106 1315.792 1315.567 1316.094 1317.177 1318.413 1319.531 1319.339 1317.273 1313.295 1310.568 1309.545 1308.204 1304.998 1300.663 1296.805 1291.646 1282.215 1267.654 1264.213 1264.474 1265.331 1263.592 1255.582 1239.324 1226.784 1213.657 1198.387 1185.815 1170.709 1154.663 1150.138 1148.145 1142.229 1131.678 1125.611 1132.105 1137.145 1138.322 1137.316 1134.159 1128.023 1118.264 1093.117 1069.096 1051.134 1034.24 1013.271 989.3537 963.7822 953.6538 965.7906 991.0978 1008.719 1020.603 1027.737 1033.002 1030.204 1042.013 1052.947 1057.77 1064.088 1059.639 1045.694 1052.45 1059.488 1066.486 1071.119 1070.947 1062.243 1054.77 1062.459 1071.135 1079.444 1081.813 1079.043 1074.042 1067.765 1051.085 1023.352 997.113 975.0729 975.6155 994.0489 1007.879 1022.38 1032.601 1041.966 1048.013 1053.267 1057.787 1063.047 1065.809 1068.877 1072.178 1073.51 1078.762 1083.492 1084.582 1083.655 1081.934 1078.093 1073.354 1066.657 1061.04 1057.055 1052.383 1047.128 1039.675 1033.5 1028.743 1026.305 1025.189 1023.999 1020.435 1012.347 1006.771 1003.297 999.9127 996.8217 993.8617 989.2372 982.256 977.6744 974.2762 969.3931 964.6568 958.8445 951.9629 941.6718 926.0513 916.1647 904.3781 892.8711 883.9114 871.9393 855.2715 839.0255 835.0986 829.4628 823.9501 818.2007 807.0867 795.3307 787.4587 786.4839 798.1949 812.3241 827.9879 840.0904 853.8974 865.7036 873.6262 878.9924 880.9205 879.9321 876.8828 871.4875 866.0004 862.8884 859.7311 857.2868 854.9749 852.3945 850.2617 848.3159 845.3006 842.2775 839.4371 836.7342 834.4689 831.9675 827.9382 823.9702 820.6135 816.7521 813.3588 808.9191 801.3324 786.7383 778.3646 784.7205 794.8414 809.0127 822.1873 832.6114 845.8591 855.8492 863.1375 868.1805 863.8156 856.5253 847.1469 835.2557 824.4268 818.1395 815.7045 817.0195 817.6232 816.3065 814.0063 811.3409 808.8621 805.2856 799.0485 794.6924 788.1263 781.5515 776.055 770.3837 764.3475 758.7535 753.191 747.3555 747.4094 749.6412 752.066 754.3067 756.0106 758.3998 760.3857 760.4773 759.2455 757.2689 751.2675 745.3114 743.8893 741.1105 737.0196 732.4829 728.4058 725.5964 724.0093 721.7814 717.9854 714.5682 711.4748 707.7466 701.1567 696.275 689.2191 684.4763 678.5242 671.9118 664.0632 656.0333 647.3726 640.6536 633.1774 623.715 612.834 598.2648 581.3823 562.9069 547.59 536.447 529.493 523.5138 518.7092 513.7505 504.6544 490.0668 471.5606 451.2126 461.613 479.9579 491.568 492.7979 488.4219 489.7775 487.4131 482.9605 478.2299 472.6148 465.9815 457.2282 449.9225 450.9189 452.4423 450.3555 440.4548 423.9683 406.6005 392.5236 383.1796 391.7791 399.0226 403.1239 403.1173 403.5085 424.7519 446.1023 464.0916 478.2677 487.482 494.7194 500.7639 502.9708 492.4109
1379.183 1378.946 1376.556 1372.543 1368.308 1362.749 1356.096 1352.497 1354.443 1355.464 1355.184 1354.494 1353.058 1352.425 1354.111 1356.791 1358.329 1359.577 1360.475 1359.924 1357.745 1355.769 1356.042 1357.923 1359.272 1358.622 1358.236 1357.788 1356.238 1351.017 1345.092 1340.981 1339.375 1336.026 1327.583 1316.725 1310.001 1304.479 1304.159 1304.592 1306.282 1307.973 1309.241 1309.284 1307.744 1306.752 1306.069 1305.406 1302.829 1299.516 1296.645 1288.822 1276.859 1264.367 1253.044 1253.857 1261.054 1267.093 1270.936 1263.489 1252.121 1240.885 1229.948 1212.701 1197.92 1182.25 1162.473 1142.781 1128.408 1113.7 1106.447 1097.837 1106.075 1109.76 1110.132 1112.027 1111.931 1111.225 1107.837 1099.574 1077.82 1061.717 1044.926 1025.537 1000.745 974.1396 954.3267 952.2532 958.6674 974.9706 985.9238 996.5408 999.3097 999.7669 1015.076 1015.675 1019.957 1030.228 1033.258 1012.419 1020.368 1024.431 1028.624 1034.417 1037.214 1027.081 1019.413 1027.982 1035.873 1039.786 1041.292 1041.023 1039.516 1036.65 1031.922 1018.413 992.8393 967.2263 953.5553 965.7069 979.1236 990.0948 1002.711 1012.376 1017.735 1020.192 1029.113 1037.83 1043.394 1047.288 1049.391 1050.227 1058.289 1063.084 1065.652 1071.88 1075.511 1074.403 1070.023 1063.104 1058.517 1054.396 1049.736 1042.281 1033.878 1024.338 1015.931 1013.293 1014.231 1011.453 1004.641 998.7906 990.2935 984.1712 981.8738 978.0525 973.1949 969.0154 966.244 962.0219 957.1424 951.291 943.7984 939.1718 931.73 919.0145 905.767 886.6683 880.336 871.2071 857.926 843.7566 836.2261 837.9201 838.3078 832.2336 824.3403 826.0576 828.3793 826.8469 818.2466 794.5043 769.3211 785.8832 799.093 811.4218 826.4991 839.4296 854.8558 863.304 870.5454 873.4011 872.2784 869.8225 866.5569 859.7924 855.1697 853.559 851.4076 849.0675 847.2795 844.8143 842.4763 839.3774 836.3438 833.252 830.2098 827.2363 823.592 820.3574 816.835 813.3094 809.7791 805.7039 795.3886 782.8224 769.6371 771.8146 785.0968 799.3013 815.9387 831.0526 843.7021 854.0261 861.6937 868.1564 863.8441 855.5597 846.8886 836.0054 826.6191 823.779 822.2883 821.8834 821.0613 818.6854 814.6868 810.5227 806.7129 798.6722 790.5639 784.019 777.0853 771.0896 763.2357 755.269 746.321 737.9899 730.3546 721.165 722.7705 726.2667 730.647 733.5055 737.9778 743.8337 745.7599 745.709 744.5272 742.1672 738.6708 732.4637 730.1511 727.8762 721.2496 717.0735 713.1997 711.7422 712.4208 712.7453 711.9609 711.012 709.015 704.5833 698.4997 692.0627 684.624 678.7089 672.2926 664.5329 656.6556 649.7568 642.5474 636.2321 628.147 618.6542 607.0068 593.4592 578.9249 562.6543 546.3268 531.613 516.6336 500.5112 491.5337 489.4246 480.569 461.4866 465.6374 484.4643 498.1943 511.2069 515.9075 514.5219 511.7456 509.8379 508.5186 506.632 503.8867 500.5486 495.74 488.9721 485.1487 484.664 480.8521 474.6844 464.9785 454.2646 440.7224 425.4409 407.3423 388.1834 374.1417 383.2206 400.3057 416.606 429.914 440.603 448.9992 458.0938 474.2292 486.9512 494.3368 496.8728 489.4983
1375.144 1372.75 1369.313 1364.525 1358.254 1353.051 1348.701 1345.758 1346.095 1346.113 1345.375 1344.177 1344.641 1349.427 1353.345 1354.926 1355.855 1356.677 1357.087 1356.827 1355.133 1354.461 1354.841 1355.829 1356.118 1355.691 1354.822 1352.237 1347.505 1341.033 1329.861 1325.585 1328.247 1328.329 1323.949 1317.487 1305.739 1288.547 1284.197 1284.982 1285.947 1289.972 1293.9 1295.761 1295.302 1290.408 1285.822 1285.058 1284.79 1284.701 1281.956 1271.715 1248.886 1237.732 1229.083 1234.018 1248.154 1256.001 1258.761 1257.555 1252.226 1247.96 1241.745 1230.555 1213.831 1194.486 1178.168 1159.203 1144.969 1133.811 1116.475 1093.643 1069.478 1076.24 1078.541 1078.952 1078.589 1082.023 1082.513 1069.814 1059.282 1046.076 1032.948 1018.044 1000.785 983.6555 964.6302 947.5842 943.0193 945.4727 948.4766 952.418 957.6199 971.4296 978.616 976.0099 980.9392 995.5356 999.155 980.454 985.0249 992.6049 997.4101 1001.837 1004.489 994.2285 984.5286 995.9234 1002.691 1006.304 1005.203 1001.793 1001.595 1001.557 998.4674 994.2036 984.5474 966.2512 934.5616 936.8474 951.1215 963.5382 972.4317 980.3431 985.0308 989.2245 1003.391 1011.78 1014.513 1011.498 1015.909 1027.029 1033.601 1037.372 1040.941 1047.191 1057.473 1062.63 1063.616 1061.019 1056.462 1052.888 1047.97 1041.77 1033.828 1024.099 1012.61 1002.216 992.4101 989.2737 983.5405 976.8411 967.3538 954.583 948.2919 946.4788 946.7443 945.335 941.5256 934.7277 926.4066 924.1637 917.632 907.4525 901.5197 892.5404 882.5955 863.0809 856.3734 860.3594 862.2113 864.8606 868.8284 869.2111 866.5346 861.6549 858.845 861.1247 857.7244 849.4154 829.5858 808.4963 784.3122 761.4147 767.1868 784.1131 798.1795 821.4658 842.6342 858.0658 863.866 866.173 866.0751 863.0504 858.3658 854.9327 849.7834 845.4022 843.6525 844.3005 844.5829 843.1743 839.9532 837.0982 833.4978 829.7935 820.9141 820.4319 814.6843 806.7758 800.3506 801.5298 801.251 797.0183 787.822 777.4521 765.8364 760.061 776.5441 789.904 802.05 819.5757 832.0893 844.856 857.34 861.5094 860.3502 855.3444 847.504 839.0208 832.6486 829.4222 828.0186 825.478 822.7772 819.2891 808.913 803.3286 794.8636 785.4108 778.2454 769.6897 758.7139 752.0491 740.305 729.9781 719.3063 713.4781 706.1296 697.7349 693.5764 696.1686 698.3768 702.6678 714.1134 723.684 729.8172 732.4879 731.9837 729.582 722.8686 714.0362 707.2816 708.5012 707.3248 703.5654 696.7322 693.3386 696.3915 698.5004 699.3162 698.4819 696.3485 692.5286 686.3001 679.9079 673.9263 668.4054 661.857 655.0844 649.224 642.163 635.1342 628.2041 620.5543 611.0002 600.2966 590.3509 580.8468 571.2213 554.9255 541.0939 524.2379 507.9959 492.625 473.9548 473.5193 487.253 502.8651 516.8278 525.988 530.2753 530.8889 528.9191 526.1436 523.5523 521.3411 519.5305 517.8087 515.8867 513.6024 510.3773 506.9469 502.9229 496.8129 490.0851 482.3166 472.2665 460.8167 446.9452 423.3347 396.5345 372.3336 374.8238 385.9128 396.1362 403.6086 409.8907 416.1591 442.2994 464.0612 480.0757 489.0475 491.9962 488.9602
1371.487 1368.551 1362.674 1354.075 1348.49 1344.737 1340.992 1338.362 1337.954 1336.715 1334.362 1338.985 1343.991 1349.439 1353.852 1354.509 1354.776 1355.269 1355.703 1355.387 1354.113 1354.469 1354.394 1353.576 1351.418 1349.769 1347.758 1344.17 1337.403 1326.23 1314.73 1309.706 1315.758 1317.232 1314.351 1307.171 1293.148 1275.157 1260.606 1256.495 1258.706 1265.945 1270.326 1273.234 1273.896 1270.171 1259.883 1263.219 1263.678 1262.8 1258.914 1250.542 1230.823 1213.305 1203.791 1216.753 1232.38 1234.561 1231.904 1229.489 1229.551 1230.568 1226.633 1221.706 1215.848 1199.116 1183.626 1165.727 1148.837 1138.869 1127.506 1109.968 1083.621 1059.574 1044.026 1048.961 1050.511 1054.786 1056.099 1045.113 1029.742 1017.139 1003.343 989.4664 973.8878 961.6835 950.7278 946.0591 943.9866 942.1365 937.3634 932.4804 929.7818 929.0832 929.5977 936.2259 941.2349 951.7651 957.3624 955.5826 951.8444 956.2955 959.0303 964.0103 966.701 961.16 952.2487 960.9039 964.603 965.0925 964.3207 960.2095 965.1746 963.5247 960.9747 959.7445 958.4765 953.886 940.0044 914.0822 920.406 932.7064 943.9846 950.7974 951.9236 965.5852 974.7119 980.1121 977.5784 969.6145 984.322 997.1171 1006.043 1009.68 1017.308 1024.851 1032.547 1043.755 1049.203 1052.698 1052.048 1050.072 1046.425 1041.632 1036.317 1029.4 1022.38 1015.808 1006.851 996.4008 986.3405 981.2532 978.9315 971.803 963.2546 954.5246 943.8773 934.3025 925.438 917.6877 911.1831 904.2174 898.6727 893.8538 887.6637 883.6739 882.4367 884.7736 888.9902 892.4908 893.395 893.6422 894.1721 893.4662 890.8691 887.5247 886.0842 885.2782 880.8984 867.5556 843.8355 823.8768 802.3965 780.5314 756.7469 758.2502 780.3245 806.8902 828.7399 848.2372 857.3367 858.6923 857.9694 853.6371 848.6957 844.805 840.6476 833.824 830.8138 835.0529 838.5412 839.178 837.4986 835.3633 832.8069 824.7421 806.1516 793.9443 794.9867 783.4058 775.9435 779.7505 782.8544 783.6256 779.2219 771.513 759.7955 750.4592 764.489 776.9605 794.1336 807.7769 823.7426 837.4297 850.3682 856.751 856.192 853.3293 848.2121 842.9793 838.937 835.5517 832.3534 827.675 821.9949 810.9641 800.1618 793.4807 783.7294 772.7667 762.3127 753.132 748.5728 748.0928 747.101 746.1367 745.2712 742.1739 737.0479 728.1743 716.3258 703.9623 691.3427 678.2868 685.3127 698.704 706.1901 708.3199 707.7829 705.8838 701.8643 695.909 682.6721 686.0955 688.6143 684.8248 675.7036 666.5791 672.0769 674.6918 675.0578 674.6963 673.4522 671.4803 668.0086 664.3036 660.3472 654.6851 648.7586 642.3759 635.5546 628.9702 622.787 616.2028 609.024 600.9988 591.9587 582.8668 573.2322 559.8132 544.8479 528.4927 512.271 494.816 477.2304 489.4055 504.4932 519.3168 531.6524 539.4055 541.9667 542.7062 541.9711 539.9109 538.0128 535.0989 532.2209 529.5381 527.3156 524.575 519.6868 515.9236 510.2877 503.9627 497.0106 490.0264 478.8131 466.3441 454.0008 441.7524 428.3525 407.3349 384.4173 368.1935 361.4127 362.9647 371.6222 385.0248 402.8494 421.4424 445.3853 462.996 474.4333 481.433 484.0395
1368.482 1364.876 1358.269 1349.783 1341.55 1337.905 1334.498 1331.709 1329.241 1328.641 1334.166 1339.696 1344.661 1350.438 1354.638 1354.537 1354.69 1355.118 1354.905 1353.391 1351.213 1349.329 1348.213 1348.281 1347.402 1345.556 1342.426 1334.839 1323.15 1311.666 1302.189 1292.77 1294.547 1296.521 1294.583 1287.856 1275.209 1262.67 1248.948 1233.475 1235.032 1240.378 1243.992 1244.07 1244.597 1241.209 1230.864 1232.415 1233.7 1232.928 1231.187 1225.767 1204.352 1192.606 1181.453 1194.533 1206.02 1208.912 1206.848 1201.905 1201.321 1200.733 1199.032 1192.633 1185.89 1177.888 1169.31 1160.106 1142.2 1122.113 1113.229 1105.266 1090.433 1075.255 1055.466 1036.005 1012.122 1025.279 1021.763 1007.25 993.433 979.9198 968.0093 961.2682 964.557 969.6307 977.3516 981.9402 978.6117 963.3071 959.1926 951.6316 942.5425 927.9711 925.152 918.7476 916.6294 913.5995 917.0696 925.0622 923.7416 924.9839 924.587 923.9545 924.7333 927.4815 916.9065 924.2009 925.166 926.6941 926.2806 925.5518 929.6071 930.4108 929.705 925.2789 925.0999 926.5325 924.7816 916.9601 894.2121 905.0776 914.1745 919.3463 930.7737 941.7012 948.7088 950.5109 942.6099 942.1953 960.7113 967.1575 968.3806 970.4978 985.4361 999.8001 1013.218 1021.918 1028.311 1034.498 1038.731 1040.274 1040.276 1038.24 1032.904 1028.149 1023.12 1017.472 1012.288 1006.71 1002.762 998.1276 992.34 987.154 983.0862 978.3423 970.4172 961.3343 953.8398 944.7684 937.4268 931.8306 926.4188 920.0148 916.077 911.7913 910.7358 911.9503 912.4984 914.0244 915.1675 912.7152 910.5707 908.4195 905.5016 902.5718 899.761 896.6255 890.1554 875.6323 847.6702 823.9227 801.5872 778.2509 755.8365 746.3162 768.8206 795.8994 815.3155 832.3928 845.3333 849.4321 850.3801 844.5992 839.0499 834.6152 831.8325 825.5056 813.058 820.0883 829.0316 832.9005 833.9316 833.4004 831.6484 826.125 816.2858 797.4517 776.8448 760.1025 743.4457 750.1282 762.6549 764.6251 760.9486 754.2001 740.8093 744.0166 757.8243 773.8654 790.2228 804.1611 820.0321 833.7707 843.7816 847.1874 848.5583 848.2847 846.6155 845.0153 843.3731 839.5859 834.998 829.4252 820.3405 809.2175 797.2791 791.8898 787.5763 784.7155 781.2821 778.145 775.2188 772.9321 769.9472 766.2609 762.8577 758.4515 750.8666 742.1445 732.5538 716.7047 702.0486 686.2519 669.5908 671.5823 679.8214 683.4797 684.7272 683.6626 679.9154 674.2697 659.9464 662.5973 664.684 660.7449 651.7426 640.1014 645.0262 646.0541 646.9812 647.2469 648.3559 649.052 648.3389 645.4056 640.9371 635.4733 628.9608 622.2758 614.6138 608.0912 603.3677 600.1554 594.825 587.7206 579.2458 568.4207 555.4414 543.4247 528.0901 512.8146 493.2615 487.4282 499.9308 512.566 527.9324 540.2709 547.9457 550.7351 550.5993 549.8498 548.8174 546.4357 543.3143 540.8559 538.4531 533.5241 528.7733 523.5977 516.6003 510.063 502.1642 495.4346 487.1989 475.579 460.7914 448.5802 433.862 420.5598 406.1259 392.0451 385.7469 378.9749 370.0709 363.5747 352.5301 362.8923 379.8355 399.2124 418.3207 431.9902 447.2481 463.2926 474.2699
1362.929 1358.194 1352.309 1345.428 1338.902 1332.851 1328.105 1325.23 1323.94 1331.494 1337.933 1343.523 1347.485 1351.327 1353.936 1355.027 1355.058 1353.18 1351.449 1349.652 1346.872 1343.116 1342.427 1342.947 1342.946 1338.817 1332.881 1321.855 1308.886 1299.72 1290.215 1278.803 1278.383 1278.902 1272.116 1266.156 1255.562 1241.03 1230.218 1218.133 1208.996 1213.273 1214.438 1217.512 1216.977 1211.953 1203.84 1202.719 1203.813 1203.949 1202.704 1197.063 1180.956 1165.887 1158.869 1172.372 1178.309 1177.113 1173.01 1168.024 1169.807 1170.61 1164.781 1163.349 1160.646 1150.908 1141.868 1135.311 1126.912 1114.166 1087.765 1074.073 1071.311 1061.499 1044.027 1024.437 1008.166 989.67 986.944 980.4048 984.892 992.9495 998.3248 1002.323 1007.062 1009.684 1021.872 1020.388 1000.81 995.3012 988.2112 986.4519 970.2565 957.7384 955.7195 944.8566 934.6776 923.7901 910.8837 905.6302 902.3945 901.1517 902.9537 898.9663 897.598 895.0471 890.0382 885.9003 881.3175 881.2652 886.8479 885.5581 892.2372 892.3298 890.5253 888.6265 887.5735 888.4999 890.9651 893.8527 891.6494 874.3726 892.2771 898.7401 908.5764 916.5623 921.1482 919.6584 906.6486 923.1308 933.0985 937.5057 934.4987 947.7204 960.5756 969.7064 977.209 989.442 1001.768 1009.081 1011.328 1012.874 1019.451 1021.435 1019.409 1015.77 1012.256 1009.135 1007.814 1006.183 1004.843 1001.899 996.8351 992.5317 988.6425 983.4396 979.3233 974.0934 968.6434 962.7605 953.6337 946.3902 941.4263 935.109 931.5941 930.493 929.9689 927.0832 925.5369 925.4216 925.2697 922.5567 919.4039 916.9142 913.1336 909.394 906.4066 901.252 889.9092 870.8727 841.6327 815.4343 791.6889 768.822 743.9848 736.7457 758.9081 784.0422 801.3174 815.7861 827.3577 835.9385 839.2161 834.7272 825.3713 814.3167 808.3923 803.0302 796.5458 801.1512 816.0095 826.1186 831.8163 831.2616 827.9016 821.0078 812.8763 802.3989 790.2363 771.7144 747.2324 726.6378 734.0818 736.0598 727.732 724.2025 738.1859 758.5048 772.3002 784.3646 793.459 805.1512 818.2776 830.2707 834.7115 835.5877 836.6981 839.5685 840.9418 841.2781 841.1836 839.7802 836.7298 833.4943 826.6494 818.9169 812.1235 806.7949 804.2018 801.248 797.3837 795.4749 791.6981 786.6248 781.6633 773.6675 766.9545 759.1854 749.2059 738.996 727.271 711.5295 696.0753 680.956 667.3165 658.0722 653.9059 656.7765 659.0025 658.1245 653.8345 647.6811 637.832 637.7877 635.6754 630.7617 623.5938 612.6097 610.2888 610.1269 611.0584 613.6974 617.2717 619.5173 621.1517 619.9117 614.9903 608.3361 601.5474 594.9434 587.5872 580.7385 575.5807 571.5135 567.0391 559.9627 551.6863 543.5145 534.1451 520.8265 507.4274 492.6093 500.9803 514.0543 527.4317 538.8867 548.739 554.7914 558.3876 559.5054 558.8465 555.9689 552.8382 548.7742 544.5903 540.8315 536.6505 530.8079 525.0594 518.2156 510.8204 502.2413 492.1102 480.9465 468.1446 454.579 442.351 429.1083 413.1222 407.5309 413.3258 417.0944 415.502 408.637 394.3949 378.2327 359.3012 348.5096 359.3177 371.6829 387.8052 403.2214 419.1211 437.3941 454.07
1355.193 1349.988 1343.3 1337.138 1332.753 1327.816 1322.117 1318.953 1326.876 1335.189 1342.47 1345.909 1348.678 1351.139 1352.993 1353.006 1351.21 1348.882 1347.003 1345.637 1343.721 1339.063 1333.575 1331.671 1330.551 1326.629 1316.822 1304.428 1297.136 1287.475 1273.817 1260.841 1251.768 1249.923 1243.69 1237.062 1231.378 1223.855 1210.302 1197.737 1188.555 1185.526 1183.296 1179.566 1181.283 1178.728 1168.886 1168.986 1163.604 1159.321 1158.762 1159.873 1160.216 1144.655 1138.698 1147.912 1148.411 1149.137 1146.3 1128.556 1131.731 1133.32 1129.046 1125.526 1120.503 1110.002 1100.556 1102.512 1097.035 1084.174 1070.699 1055.807 1042.73 1032.299 1017.025 993.8879 997.1955 998.959 998.0111 1006.54 1012.792 1020.292 1031.107 1040.407 1046.828 1053.795 1059.422 1047.253 1038.571 1024.351 1015.197 1011.138 995.223 988.2632 990.3386 982.3283 973.99 961.9706 949.1539 931.4422 939.5637 936.2229 930.0726 924.4687 915.3773 907.834 900.6754 898.8696 895.0107 887.4935 877.9652 874.3325 870.9962 866.4132 862.9217 860.9419 858.9355 858.3586 855.7313 853.3727 853.1542 864.5173 873.3839 877.0645 886.0067 892.4362 893.4023 889.0795 884.2028 901.5079 905.4897 902.8428 912.4009 925.0536 934.1751 939.8627 938.4181 953.4963 960.9891 969.2312 976.5458 981.4972 986.3934 986.6561 983.7061 978.045 977.0156 981.3143 985.7778 990.3698 993.6543 994.461 992.2736 989.8112 983.2354 977.8915 974.7856 972.6047 967.7009 960.6124 947.7177 936.7754 928.7697 922.4448 919.4562 919.7593 921.2351 926.6103 929.8995 930.5203 929.636 923.8781 919.9045 918.2864 915.0765 909.3925 904.4809 897.8369 888.4579 864.6296 838.5282 811.8582 786.105 762.421 739.3732 723.987 746.3708 765.6399 780.8456 791.7814 809.3098 822.525 826.6021 817.6708 805.7817 787.8257 776.6187 770.0963 769.6956 796.0483 810.0774 818.9968 823.3868 823.8364 822.6167 817.762 807.5577 796.1499 785.5109 765.0756 742.693 719.7129 705.5384 704.0648 722.3585 744.7138 762.6865 774.7647 788.2285 798.3805 804.6402 811.4232 818.2628 820.3788 814.9771 807.5016 813.038 818.2355 825.5458 833.8983 839.1351 839.2482 838.0536 835.6714 829.8978 826.9932 824.2263 821.0847 817.0856 812.2668 806.3501 801.4655 793.8277 783.704 775.594 767.4343 759.9116 750.249 738.4783 724.8395 710.4526 696.2941 683.4775 668.0168 665.8907 665.6721 661.8923 653.6312 643.0175 634.0042 628.8351 625.8268 621.7315 619.2624 615.5784 611.4006 609.5922 608.2555 606.4739 604.1529 599.6845 589.0613 579.1969 580.9183 584.8247 584.0142 580.5557 576.2709 570.945 566.1327 559.4697 549.3255 540.5058 535.6564 529.1156 523.2299 514.1313 511.3574 509.3211 509.9528 514.991 525.1055 536.0322 546.026 552.8647 557.6938 562.4637 566.0941 567.1082 565.9946 563.2386 558.0652 552.4525 546.8687 541.2938 536.2468 529.9649 524.1492 517.3391 510.21 502.1438 492.1587 479.6715 463.4318 444.0042 437.9889 430.5628 433.1008 439.7183 443.7138 445.4933 444.3624 439.5117 429.3874 409.6522 387.5457 372.6849 357.6218 341.4236 351.3779 362.9415 377.0054 393.6164 410.8252 427.2832
1346.446 1341.774 1333.647 1326.58 1323.528 1319.12 1312.912 1317.112 1328.865 1338.922 1344.315 1346.534 1348.69 1350.042 1350.069 1348.615 1345.753 1342.02 1340.411 1340.447 1337.402 1331.351 1320.278 1315.861 1314.297 1309.919 1300.926 1293.987 1284.694 1271.365 1259.456 1248.938 1240.763 1231.578 1226.227 1219.19 1209.093 1206.657 1205.552 1206.598 1202.848 1194.192 1180.272 1168.266 1162.304 1153.937 1142.235 1135.63 1129.594 1123.557 1125.135 1124.918 1124.509 1120.286 1109.03 1117.164 1119.824 1117.117 1110.29 1101.167 1086.556 1090.353 1089.051 1084.144 1079.974 1070.567 1059.884 1062.67 1056.51 1047.345 1034.937 1026.115 1015.446 1008.208 1001.884 1019.139 1033.494 1038.755 1032.202 1042.017 1045.233 1042.564 1061.854 1075.689 1086.18 1092.26 1091.047 1077.329 1070.404 1048.374 1048.116 1042.245 1017.152 1021.294 1024.984 1017.451 1008.603 990.0131 970.0125 974.7858 979.5129 978.3495 973.9487 967.4932 949.5652 953.1174 949.1213 930.4241 939.7613 934.5607 923.6511 916.0386 903.9267 896.1741 894.316 886.5148 877.8008 870.2639 863.0439 856.2339 847.5643 845.2693 845.9484 850.8093 856.5795 860.8146 864.0905 866.5728 866.0688 876.2465 877.8117 870.3712 888.3482 898.5037 906.0284 900.3276 906.1382 924.5488 931.1248 935.8478 938.0949 942.7355 949.1456 951.8928 947.9441 942.372 940.3791 950.6462 959.4705 964.382 966.2017 967.8571 966.7639 964.668 960.1247 955.0505 950.2886 946.1371 941.7179 933.4495 920.949 909.7952 900.9929 895.0101 893.6974 897.6321 900.5045 906.2018 907.6237 909.6045 910.5222 908.9525 908.0934 906.9321 904.0591 899.3953 892.6589 886.7994 875.1634 856.7363 836.7294 810.9735 786.333 762.4539 739.4845 715.6734 725.4761 740.8157 754.3997 773.4562 788.5154 799.0356 802.8963 794.3965 778.4459 760.2763 744.536 741.9245 771.6148 794.5129 803.4302 808.2197 811.3093 812.2151 814.5409 811.1989 800.2813 785.5179 764.9589 747.0126 730.9902 707.2858 692.2943 711.0239 734.5706 755.8119 766.1773 776.6343 786.4537 792.3187 794.0945 794.5354 791.1602 787.0074 780.4933 773.1049 784.0512 789.2841 805.3651 821.1431 834.2 838.8204 840.6563 841.0398 841.6097 838.6343 833.5997 828.8218 824.8163 820.5316 814.2615 802.8911 792.5724 781.0911 767.7952 753.2681 743.6917 733.5912 722.0645 706.6454 691.3766 680.9556 683.1897 688.1214 691.4277 690.0294 685.0359 675.9307 659.8807 641.9029 641.6462 645.705 648.7623 649.916 648.6132 646.5308 643.8389 640.9479 637.9269 634.0768 626.4311 614.5997 604.3091 594.2701 587.402 581.7781 578.2924 574.696 568.8715 561.2447 550.4088 551.5416 554.0826 552.703 549.7867 545.2228 539.9109 539.0176 542.1002 545.9169 550.4926 556.2875 561.542 565.7115 570.2846 574.3293 575.7191 575.4594 573.1401 568.9114 563.9737 557.6765 550.0378 542.7488 534.0542 524.6973 516.7532 511.4447 503.1512 492.6923 482.8325 472.5704 462.5222 460.9651 462.3404 463.1979 463.5661 464.0224 465.4438 466.9546 467.2503 465.1818 455.1888 434.3339 424.9406 412.5796 398.1894 380.12 362.3345 339.6551 341.0801 352.7628 367.9471 384.0172 400.9347
1334.609 1328.79 1323.001 1316.396 1313.978 1308.445 1311.329 1319.468 1329.492 1340.111 1343.481 1346.157 1348.172 1348.939 1348.203 1345.764 1342.018 1339.134 1333.77 1330.499 1326.893 1316.54 1312.216 1308.186 1300.878 1293.902 1289.8 1279.953 1268.931 1268.185 1258.271 1252.089 1254.674 1255.22 1249.548 1240.876 1244.73 1249.882 1250.305 1247.865 1242.495 1232.875 1219.174 1202.03 1193.755 1182.618 1169.026 1155.554 1142.093 1151.416 1148.558 1136.422 1125.432 1111.454 1097.764 1093.727 1089.296 1084.127 1079.974 1075.031 1069.649 1062.835 1062.625 1061.449 1056.165 1048.972 1044.422 1038.611 1036.988 1036.503 1037.59 1041.641 1040.649 1019.981 1027.833 1050.318 1066.556 1069.458 1064.294 1081.366 1087.433 1079.848 1086.244 1106.099 1121.043 1130.074 1126.384 1115.722 1099.933 1074.206 1077.678 1064.487 1048.902 1054.193 1055.21 1049.177 1033.185 1002.858 997.0699 1001.869 1006.717 1010.545 1011.079 1002.451 979.9111 993.443 982.7249 958.9452 971.7673 978.6005 964.8276 953.5024 932.567 938.1795 942.6634 934.5686 922.9366 915.2938 904.5574 887.8287 876.9498 867.132 856.3947 845.0031 836.7382 836.3734 838.4139 840.3874 842.6714 847.5401 849.3281 847.1546 860.5672 865.8483 872.2656 865.0876 879.3489 890.9116 895.569 898.5237 896.342 907.9594 915.1006 915.0836 904.4574 903.8544 906.8068 918.3668 925.3344 927.3921 927.8633 931.5806 932.7697 931.108 928.7172 923.6285 918.3116 916.3015 911.7518 905.0002 892.902 882.5725 869.7972 860.5786 864.3961 870.6061 876.7421 881.0891 881.6973 882.5109 881.8109 881.8715 881.0969 876.888 873.0759 867.2139 862.0087 856.3666 850.327 838.4366 823.6739 807.127 787.4332 768.6099 746.5651 725.8305 704.1052 718.5614 735.6794 750.048 762.1505 770.5387 772.5936 765.7498 749.965 734.2034 716.8389 734.4666 752.7708 767.5144 775.8536 780.8417 787.4893 793.7502 794.7082 798.8175 793.9696 779.9487 755.9692 733.6334 707.014 691.1725 687.3151 713.8461 732.6013 749.2529 755.9612 758.9161 764.4036 764.517 764.6194 764.3006 761.1544 755.313 747.9304 742.772 758.5545 777.316 800.0475 819.537 835.1902 840.9943 843.3439 845.0809 845.1515 844.3605 840.9957 834.2827 827.5746 817.6138 809.8491 799.8022 789.6877 780.1788 767.0038 748.2569 733.8138 715.0612 703.6724 695.8209 701.5528 708.5594 714.4125 717.5839 715.8521 710.007 699.3512 684.082 660.8384 654.153 662.556 671.2217 676.9672 678.3326 677.1688 675.2895 673.056 670.2292 666.5808 661.2491 653.6113 645.2319 637.4873 627.7265 619.5786 613.3931 608.3253 604.3207 600.6874 585.3412 560.0342 577.2906 585.4644 586.3206 582.5317 574.6507 568.4584 569.0692 572.9081 575.1752 576.8411 578.2994 579.9576 581.4724 581.8789 580.8295 579.1511 577.344 574.676 570.0393 564.7979 558.7355 551.7606 544.0793 539.6733 532.5599 526.3504 519.2991 512.4969 503.5338 498.9045 495.9418 493.377 491.7395 491.3123 490.5321 486.848 484.8264 483.5506 482.5747 480.5557 474.6571 467.9671 460.2542 450.245 438.3298 425.5214 408.1163 386.1061 367.883 343.6807 330.2751 340.8907 353.4994 372.1737
